ply
format ascii 1.0
comment VCGLIB generated
element vertex 1191
property float x
property float y
property float z
property uchar red
property uchar green
property uchar blue
property uchar alpha
element face 0
property list uchar int vertex_indices
end_header
-0.207436 0.0568255 -0.147291 0 0 255 0 
-0.208738 0.150705 -0.0279945 0 0 255 0 
0.180937 -0.0742854 -0.120834 0 0 255 0 
-0.210851 -0.254055 -0.390956 0 0 255 0 
-0.232089 0.37417 -0.083909 0 0 255 0 
-0.221821 0.278707 -0.076027 0 0 255 0 
-0.0520137 -0.37913 -0.188957 0 0 255 0 
-0.180691 -0.109361 -0.115262 0 0 255 0 
-0.0137229 0.242145 -0.392365 0 0 255 0 
0.217987 0.276754 -0.0282922 0 0 255 0 
-0.107172 0.255162 -0.333627 0 0 255 0 
-0.231908 0.00976982 -0.356751 0 0 255 0 
-0.208931 0.128325 -0.281104 0 0 255 0 
-0.17517 -0.131397 -0.132962 0 0 255 0 
-0.253831 0.25431 -0.448745 0 0 255 0 
0.212824 0.231311 -0.374765 0 0 255 0 
0.0962796 0.361211 -0.142898 0 0 255 0 
0.193046 -0.125547 -0.329493 0 0 255 0 
-0.252036 0.330332 -0.112942 0 0 255 0 
-0.184899 0.266504 -0.232274 0 0 255 0 
-0.04149 0.336646 0.29594 0 0 255 0 
0.240835 0.44176 -0.055928 0 0 255 0 
-0.210129 -0.288383 -0.414483 0 0 255 0 
-0.0563567 0.289524 0.220903 0 0 255 0 
-0.207225 0.135098 -0.24462 0 0 255 0 
0.183937 -0.103961 -0.0957644 0 0 255 0 
-0.132017 -0.219377 -0.166831 0 0 255 0 
-0.292642 -0.190896 -0.431651 0 0 255 0 
0.26144 0.356632 -0.0913197 0 0 255 0 
-0.179628 0.273131 -0.136471 0 0 255 0 
-0.124305 0.28676 0.408638 0 0 255 0 
0.200444 0.252877 -0.364568 0 0 255 0 
0.0515895 0.435782 0.0231293 0 0 255 0 
0.249934 -0.0498635 -0.389739 0 0 255 0 
-0.288223 0.374992 -0.0322153 0 0 255 0 
0.212519 0.167399 -0.0370601 0 0 255 0 
-0.133369 0.325127 0.189091 0 0 255 0 
0.0610994 0.326634 0.354496 0 0 255 0 
-0.164775 0.369811 -0.434567 0 0 255 0 
-0.263881 -0.0391178 -0.405356 0 0 255 0 
0.119116 0.323868 0.181853 0 0 255 0 
0.0429409 0.372197 -0.373127 0 0 255 0 
0.136371 0.259471 0.0125833 0 0 255 0 
0.0336948 0.27188 0.147034 0 0 255 0 
-0.1569 0.265449 -0.418658 0 0 255 0 
0.0883729 -0.273119 -0.189155 0 0 255 0 
0.201174 0.371762 0.126951 0 0 255 0 
-0.224169 0.310465 -0.481864 0 0 255 0 
-0.0978548 0.288868 0.380211 0 0 255 0 
0.00642331 0.378889 0.46181 0 0 255 0 
0.179187 -0.125614 -0.188949 0 0 255 0 
-0.0493614 0.310275 -0.0183751 0 0 255 0 
0.0376775 0.378442 -0.27137 0 0 255 0 
0.0873218 0.359221 -0.181173 0 0 255 0 
-0.0965952 0.350742 -0.0387556 0 0 255 0 
0.234634 0.23829 -0.422675 0 0 255 0 
-0.103111 -0.249458 -0.0728753 0 0 255 0 
-0.0917054 0.35263 -0.405286 0 0 255 0 
0.0119263 -0.404813 -0.286779 0 0 255 0 
0.166311 -0.231925 -0.318315 0 0 255 0 
-0.0872146 0.396516 -0.207181 0 0 255 0 
0.00478145 0.378634 0.320083 0 0 255 0 
0.0766817 0.423312 0.0122575 0 0 255 0 
-0.0543566 0.230032 0.400616 0 0 255 0 
0.126465 0.259554 -0.310171 0 0 255 0 
-0.188229 -0.0553241 -0.267267 0 0 255 0 
-0.0847747 -0.290709 -0.194418 0 0 255 0 
-0.0610179 -0.255713 -0.113919 0 0 255 0 
-0.208073 -0.360244 -0.457354 0 0 255 0 
0.0847461 0.413817 0.184653 0 0 255 0 
0.0585474 -0.329316 -0.128338 0 0 255 0 
-0.250647 0.439315 -0.0508759 0 0 255 0 
0.0913271 0.42225 -0.452133 0 0 255 0 
-0.0729135 0.413693 0.0543303 0 0 255 0 
0.0649584 0.390306 -0.266789 0 0 255 0 
-0.318869 -0.111616 -0.465424 0 0 255 0 
-0.0422201 0.425378 -0.16214 0 0 255 0 
-0.168875 -0.388785 -0.440671 0 0 255 0 
-0.0260529 0.417875 -0.140426 0 0 255 0 
-0.118583 0.265114 -0.256269 0 0 255 0 
-0.104868 0.418348 -0.471667 0 0 255 0 
-0.178098 -0.15047 -0.115942 0 0 255 0 
0.267058 -0.0574105 -0.410497 0 0 255 0 
0.0841243 0.387952 -0.260799 0 0 255 0 
0.207831 0.187391 -0.258125 0 0 255 0 
0.0327696 0.420943 0.155663 0 0 255 0 
-0.0800135 0.407207 0.149763 0 0 255 0 
-0.287369 0.10412 -0.424021 0 0 255 0 
-0.234418 -0.0680382 -0.373386 0 0 255 0 
-0.00247865 0.433508 -0.0575499 0 0 255 0 
-0.233756 0.164577 -0.184005 0 0 255 0 
0.0509875 0.31958 0.324897 0 0 255 0 
-0.00315993 -0.252501 -0.0365316 0 0 255 0 
0.154083 0.414049 0.186658 0 0 255 0 
-0.17214 -0.316979 -0.384793 0 0 255 0 
0.0390869 -0.340779 -0.123086 0 0 255 0 
0.215669 0.344349 -0.0983422 0 0 255 0 
-0.272207 0.417525 -0.0241533 0 0 255 0 
-0.133259 0.324874 0.207409 0 0 255 0 
-0.0266582 0.255394 -0.301351 0 0 255 0 
0.155711 -0.258627 -0.201736 0 0 255 0 
-0.226703 0.294766 -0.154455 0 0 255 0 
-0.251305 -0.30509 -0.449816 0 0 255 0 
-0.197195 -0.112838 -0.333153 0 0 255 0 
0.0378856 0.275959 0.210325 0 0 255 0 
-0.279249 -0.242779 -0.48771 0 0 255 0 
-0.0580858 0.422883 -0.303916 0 0 255 0 
-0.175823 -0.156836 -0.245075 0 0 255 0 
0.0474974 0.432709 -0.446201 0 0 255 0 
0.274136 0.199742 -0.480367 0 0 255 0 
-0.137046 0.412725 0.191096 0 0 255 0 
-0.115634 -0.234239 -0.108526 0 0 255 0 
0.205134 0.245749 -0.298205 0 0 255 0 
0.046471 0.380894 -0.197761 0 0 255 0 
-0.173267 0.0844634 -0.0149609 0 0 255 0 
-0.252565 0.268211 -0.133357 0 0 255 0 
-0.127524 0.266832 -0.236542 0 0 255 0 
0.0963106 -0.233764 -0.0281377 0 0 255 0 
-0.196187 -0.260058 -0.374385 0 0 255 0 
0.224229 0.310401 -0.483451 0 0 255 0 
0.238558 0.201621 -0.133874 0 0 255 0 
-0.252577 -0.101572 -0.399798 0 0 255 0 
0.0592358 -0.285439 -0.105636 0 0 255 0 
0.129146 0.278298 -0.0818453 0 0 255 0 
-0.137299 0.415631 0.16937 0 0 255 0 
0.264802 0.221259 -0.491089 0 0 255 0 
-0.13873 0.259041 -0.415216 0 0 255 0 
0.0241102 0.401738 -0.10279 0 0 255 0 
-0.261879 0.404379 -0.00304955 0 0 255 0 
0.235926 0.145549 -0.378411 0 0 255 0 
0.279403 0.17632 -0.492463 0 0 255 0 
-0.0342337 0.348144 0.305754 0 0 255 0 
-0.167711 -0.148436 -0.165376 0 0 255 0 
-0.189906 -0.0226058 -0.156124 0 0 255 0 
0.221568 -0.125875 -0.365767 0 0 255 0 
-0.167625 -0.197917 -0.0451768 0 0 255 0 
-0.171048 0.357956 0.119051 0 0 255 0 
0.0475729 0.408006 -0.424573 0 0 255 0 
-0.183466 -0.00797394 -0.0388564 0 0 255 0 
-0.103575 -0.245751 -0.183265 0 0 255 0 
-0.27481 0.0758806 -0.404295 0 0 255 0 
0.0464898 0.43182 0.0551077 0 0 255 0 
-0.160211 -0.235355 -0.300038 0 0 255 0 
0.0166243 0.247857 -0.319987 0 0 255 0 
-0.31272 0.0127599 -0.495552 0 0 255 0 
0.208529 0.038772 -0.173219 0 0 255 0 
0.015789 -0.446033 -0.439365 0 0 255 0 
-0.189312 0.00094018 -0.114894 0 0 255 0 
0.279119 -0.254688 -0.467842 0 0 255 0 
-0.0197862 0.244369 0.0190198 0 0 255 0 
-0.0150369 0.442984 0.0110966 0 0 255 0 
0.0402144 -0.4085 -0.41333 0 0 255 0 
-0.109506 -0.224817 -0.169379 0 0 255 0 
0.187265 -0.0150372 -0.0464008 0 0 255 0 
0.0839156 0.383875 -0.238618 0 0 255 0 
-0.143803 0.416588 0.139276 0 0 255 0 
0.185648 -0.00315875 -0.142112 0 0 255 0 
-0.0947165 0.247296 -0.366877 0 0 255 0 
-0.214956 0.375472 0.0828498 0 0 255 0 
0.00834352 0.322595 -0.0551067 0 0 255 0 
-0.0477282 0.312772 0.27556 0 0 255 0 
-0.187321 0.360316 -0.474546 0 0 255 0 
-0.177082 0.258124 -0.324184 0 0 255 0 
-0.0580912 -0.231225 -0.0207566 0 0 255 0 
0.287383 -0.224977 -0.490571 0 0 255 0 
0.148044 -0.283004 -0.203835 0 0 255 0 
-0.171044 0.112696 -0.00534694 0 0 255 0 
0.300791 0.0797844 -0.492988 0 0 255 0 
-0.260358 0.237955 -0.479191 0 0 255 0 
0.0819517 0.38166 -0.150555 0 0 255 0 
-0.209212 0.170557 -0.0216379 0 0 255 0 
0.0990556 -0.319225 -0.242868 0 0 255 0 
-0.196035 -0.00609135 -0.251698 0 0 255 0 
-0.0367985 0.223941 0.308804 0 0 255 0 
-0.183026 -0.127331 -0.095087 0 0 255 0 
0.19205 0.372675 0.153921 0 0 255 0 
-0.245204 0.375385 0.0237071 0 0 255 0 
0.209247 0.144405 -0.278147 0 0 255 0 
-0.0331205 0.437458 -0.474392 0 0 255 0 
-0.322414 -0.010216 -0.45492 0 0 255 0 
-0.236242 0.313739 -0.127804 0 0 255 0 
0.310903 -0.153329 -0.478391 0 0 255 0 
-0.107681 0.319217 0.362773 0 0 255 0 
-0.0729996 0.412337 -0.360406 0 0 255 0 
0.201757 0.389343 0.140563 0 0 255 0 
0.15044 -0.289881 -0.327642 0 0 255 0 
-0.0873257 0.405888 0.240637 0 0 255 0 
0.217812 0.31662 -0.136925 0 0 255 0 
-0.186045 0.379932 0.0989495 0 0 255 0 
0.114826 0.266959 -0.222491 0 0 255 0 
-0.218151 0.333759 -0.0897381 0 0 255 0 
0.00058209 0.217323 0.360261 0 0 255 0 
0.0827931 -0.302424 -0.312597 0 0 255 0 
0.191334 -0.28445 -0.387796 0 0 255 0 
-0.180119 -0.123651 -0.203015 0 0 255 0 
-0.208147 0.23249 -0.307597 0 0 255 0 
0.253845 -0.156466 -0.413412 0 0 255 0 
-0.0303821 0.21261 0.35451 0 0 255 0 
0.146599 0.26202 -0.300549 0 0 255 0 
0.0693216 -0.315351 -0.297647 0 0 255 0 
0.163599 0.259748 -0.409098 0 0 255 0 
-0.115711 -0.335551 -0.382809 0 0 255 0 
-0.2397 0.219327 -0.421649 0 0 255 0 
-0.222036 -0.345558 -0.471389 0 0 255 0 
-0.319047 -0.0567915 -0.493172 0 0 255 0 
-0.203155 0.246261 -0.349623 0 0 255 0 
-0.239847 -0.316837 -0.444554 0 0 255 0 
-0.0500221 0.418455 0.158246 0 0 255 0 
-0.060136 -0.345787 -0.291774 0 0 255 0 
-0.172787 0.37406 -0.468187 0 0 255 0 
0.0117226 0.246872 0.487553 0 0 255 0 
0.186715 0.0193557 -0.0345068 0 0 255 0 
0.0284012 0.428504 0.104072 0 0 255 0 
0.208272 -0.281809 -0.411106 0 0 255 0 
0.199069 0.0873397 -0.097446 0 0 255 0 
0.0781659 -0.247072 -0.0846844 0 0 255 0 
-0.129778 0.252127 -0.39529 0 0 255 0 
0.118591 0.278002 -0.0519743 0 0 255 0 
0.123089 0.266295 -0.244255 0 0 255 0 
0.213455 0.138855 -0.120504 0 0 255 0 
-0.239603 0.0358803 -0.377468 0 0 255 0 
-0.246476 -0.190027 -0.412358 0 0 255 0 
-0.16543 -0.184648 -0.159765 0 0 255 0 
-0.235938 0.179121 -0.205244 0 0 255 0 
0.0865423 -0.439804 -0.462032 0 0 255 0 
-0.05784 0.285376 0.198575 0 0 255 0 
-0.186233 0.210835 0.00526282 0 0 255 0 
0.136063 0.325598 0.190614 0 0 255 0 
-0.201726 0.275758 -0.161203 0 0 255 0 
-0.0092986 0.397715 0.247146 0 0 255 0 
-0.0578252 -0.307376 -0.119324 0 0 255 0 
-0.0567248 -0.391094 -0.276175 0 0 255 0 
-0.199489 0.245922 -0.39585 0 0 255 0 
0.208253 0.168594 -0.235254 0 0 255 0 
0.0718344 -0.448056 -0.476454 0 0 255 0 
0.0646065 0.383741 -0.176759 0 0 255 0 
0.0943003 0.263767 -0.194172 0 0 255 0 
0.0938675 0.423247 -0.475565 0 0 255 0 
0.20204 0.280182 -0.110625 0 0 255 0 
-0.00352591 -0.452138 -0.45231 0 0 255 0 
0.134649 -0.360331 -0.415306 0 0 255 0 
-0.286617 0.161786 -0.444796 0 0 255 0 
0.0357985 0.273243 0.29784 0 0 255 0 
-0.246624 0.438269 -0.0581799 0 0 255 0 
-0.162174 0.272444 -0.141211 0 0 255 0 
-0.0248838 0.407993 -0.196417 0 0 255 0 
0.193547 0.0546813 -0.115533 0 0 255 0 
0.169236 -0.202351 -0.203047 0 0 255 0 
0.118588 -0.316589 -0.340233 0 0 255 0 
0.193521 0.0572157 -0.036145 0 0 255 0 
0.195286 0.426564 0.129408 0 0 255 0 
-0.25226 -0.00366193 -0.388165 0 0 255 0 
-0.0946535 0.357679 0.437892 0 0 255 0 
-0.0981368 -0.353716 -0.398718 0 0 255 0 
-0.0448862 0.433816 -0.454066 0 0 255 0 
0.0640325 0.398088 -0.134598 0 0 255 0 
-0.121398 -0.306824 -0.20768 0 0 255 0 
-0.11755 0.276352 -0.00362752 0 0 255 0 
-0.247216 0.239263 -0.192091 0 0 255 0 
-0.0591809 -0.236647 -0.149761 0 0 255 0 
-0.0672851 0.242578 -0.00553589 0 0 255 0 
-0.301225 -0.030576 -0.424232 0 0 255 0 
-0.13003 -0.410939 -0.436014 0 0 255 0 
-0.311996 -0.126693 -0.43759 0 0 255 0 
0.20256 0.0506855 -0.25488 0 0 255 0 
0.174168 0.274618 -0.1001 0 0 255 0 
0.15716 0.230452 -0.0141534 0 0 255 0 
-0.0135705 -0.347097 -0.128503 0 0 255 0 
-0.123052 -0.349386 -0.402847 0 0 255 0 
0.0655779 0.276325 -0.402717 0 0 255 0 
0.0781326 0.390003 -0.419389 0 0 255 0 
0.146262 0.342861 -0.419072 0 0 255 0 
-0.0474445 -0.306623 -0.101731 0 0 255 0 
-0.179333 0.25695 -0.371375 0 0 255 0 
-0.212426 0.181136 -0.299818 0 0 255 0 
-0.0930945 0.399659 -0.273672 0 0 255 0 
-0.135334 0.243037 0.0122862 0 0 255 0 
0.0215168 0.411115 0.224942 0 0 255 0 
-0.226724 0.184326 -0.396838 0 0 255 0 
0.0537926 -0.347225 -0.14149 0 0 255 0 
0.297194 -0.20956 -0.470768 0 0 255 0 
0.0546729 0.388551 -0.231044 0 0 255 0 
-0.0802764 0.413865 0.0320306 0 0 255 0 
0.116825 -0.304871 -0.310339 0 0 255 0 
0.0228094 0.342075 -0.206018 0 0 255 0 
0.0751889 0.411556 0.233181 0 0 255 0 
-0.172212 -0.174208 -0.300103 0 0 255 0 
-0.0437598 0.418742 -0.182521 0 0 255 0 
0.048939 0.38214 0.387692 0 0 255 0 
-0.146715 0.318051 0.396045 0 0 255 0 
0.320624 -0.100808 -0.465561 0 0 255 0 
-0.0634754 0.414491 0.146258 0 0 255 0 
0.160524 0.0238868 -0.0234547 0 0 255 0 
-0.268567 0.217971 -0.474272 0 0 255 0 
0.249696 0.372487 0.00143997 0 0 255 0 
0.0842518 0.305248 0.443188 0 0 255 0 
-0.0662732 -0.256286 -0.0521411 0 0 255 0 
-0.232087 -0.0102407 -0.35288 0 0 255 0 
-0.0925552 0.309172 0.206026 0 0 255 0 
-0.112019 0.272657 0.022312 0 0 255 0 
-0.138834 0.265269 -0.25313 0 0 255 0 
-0.229272 -0.23793 -0.410858 0 0 255 0 
0.172057 0.267059 -0.239615 0 0 255 0 
0.124034 -0.346997 -0.401193 0 0 255 0 
-0.192395 -0.375871 -0.459168 0 0 255 0 
-0.273949 0.364366 -0.0376689 0 0 255 0 
0.171388 -0.328228 -0.396848 0 0 255 0 
-0.248943 0.0825958 -0.377954 0 0 255 0 
0.172418 0.413198 0.15977 0 0 255 0 
0.0120912 0.405192 -0.0880727 0 0 255 0 
-0.090783 0.385558 0.0429868 0 0 255 0 
-0.2519 0.301458 -0.137265 0 0 255 0 
-0.195654 -0.160925 -0.327348 0 0 255 0 
0.0938021 -0.400919 -0.416922 0 0 255 0 
-0.0781086 0.357955 -0.244475 0 0 255 0 
0.026954 0.442735 0.00870469 0 0 255 0 
0.208236 0.235247 -0.322547 0 0 255 0 
-0.107992 0.313741 0.234236 0 0 255 0 
0.0149411 -0.404438 -0.246965 0 0 255 0 
-0.11234 0.274359 -0.0978381 0 0 255 0 
-0.165781 0.262577 -0.302073 0 0 255 0 
0.0168466 0.329805 -0.417726 0 0 255 0 
0.0259266 -0.372649 -0.157457 0 0 255 0 
0.181228 0.358915 0.16013 0 0 255 0 
0.161799 0.25762 -0.344714 0 0 255 0 
-0.1446 -0.294395 -0.208628 0 0 255 0 
0.194322 0.206548 0.00441953 0 0 255 0 
-0.289729 0.0618144 -0.41841 0 0 255 0 
-0.010826 0.374708 -0.419924 0 0 255 0 
-0.209303 0.329697 -0.440245 0 0 255 0 
-0.0796916 0.397732 0.120464 0 0 255 0 
-0.172622 -0.128599 -0.0446734 0 0 255 0 
0.0348814 0.290823 0.034723 0 0 255 0 
-0.0597709 -0.33981 -0.321875 0 0 255 0 
-0.24233 0.219069 -0.113426 0 0 255 0 
-0.203253 0.109726 -0.117082 0 0 255 0 
-0.146324 -0.38635 -0.422993 0 0 255 0 
0.131754 -0.240654 -0.0978187 0 0 255 0 
-0.264511 -0.279039 -0.477182 0 0 255 0 
0.275517 -0.252452 -0.491265 0 0 255 0 
-0.246236 0.41097 -0.00468703 0 0 255 0 
0.000643144 -0.375309 -0.161342 0 0 255 0 
0.123621 0.255089 0.00358301 0 0 255 0 
-0.21103 0.369572 0.0573957 0 0 255 0 
0.19029 0.359159 -0.466563 0 0 255 0 
0.0458412 -0.371216 -0.397189 0 0 255 0 
-0.216224 0.274138 0.000336308 0 0 255 0 
0.24457 -0.300753 -0.43258 0 0 255 0 
-0.23091 -0.173921 -0.383024 0 0 255 0 
-0.097933 0.246895 0.030252 0 0 255 0 
0.216573 0.189988 -0.0294449 0 0 255 0 
-0.312126 -0.140943 -0.483116 0 0 255 0 
-0.245693 0.230548 -0.165874 0 0 255 0 
-0.166925 0.309078 -0.424193 0 0 255 0 
-0.0715083 0.424142 -0.252207 0 0 255 0 
-0.246427 -0.141818 -0.401107 0 0 255 0 
-0.162991 -0.2872 -0.339764 0 0 255 0 
-0.203634 -0.0593903 -0.316967 0 0 255 0 
-0.252899 0.241083 -0.432536 0 0 255 0 
0.179189 -0.122657 -0.257576 0 0 255 0 
0.0429539 -0.296437 -0.0999501 0 0 255 0 
-0.0294307 0.409167 -0.42162 0 0 255 0 
0.279097 -0.00521355 -0.409003 0 0 255 0 
0.254702 0.358769 -0.0240873 0 0 255 0 
0.134462 0.411463 0.190712 0 0 255 0 
0.213281 0.418254 0.106712 0 0 255 0 
-0.036248 -0.372787 -0.159388 0 0 255 0 
-0.166003 -0.239415 -0.0674117 0 0 255 0 
0.236946 0.29987 -0.146265 0 0 255 0 
-0.221081 0.217393 -0.0369544 0 0 255 0 
-0.0705801 -0.230258 -0.168644 0 0 255 0 
-0.0257362 0.416439 -0.170176 0 0 255 0 
-0.220582 0.104874 -0.336052 0 0 255 0 
-0.247827 0.161917 -0.413831 0 0 255 0 
0.211893 0.0538531 -0.293294 0 0 255 0 
-0.122209 0.408604 -0.457924 0 0 255 0 
-0.11416 -0.23682 -0.0352479 0 0 255 0 
-0.00203151 0.277633 0.0951232 0 0 255 0 
0.116324 0.274927 -0.115281 0 0 255 0 
-0.240657 0.260921 -0.430979 0 0 255 0 
-0.130229 0.273602 -0.115576 0 0 255 0 
0.0912553 0.332884 -0.394538 0 0 255 0 
-0.253519 -0.301896 -0.472774 0 0 255 0 
-0.053053 -0.438572 -0.434026 0 0 255 0 
-0.0912073 0.399724 -0.143686 0 0 255 0 
0.0491675 0.382035 -0.405259 0 0 255 0 
-0.134074 0.290422 -0.429437 0 0 255 0 
-0.0902835 -0.22928 -0.0233575 0 0 255 0 
0.211209 0.378677 0.0554132 0 0 255 0 
-0.00554654 -0.393638 -0.200815 0 0 255 0 
0.0604047 -0.341352 -0.181322 0 0 255 0 
0.212878 0.18514 -0.0909963 0 0 255 0 
0.0719757 0.301595 0.238037 0 0 255 0 
-0.298504 -0.125617 -0.42822 0 0 255 0 
-0.17016 -0.266206 -0.257378 0 0 255 0 
0.040093 0.282812 0.0917193 0 0 255 0 
0.0071993 0.396107 0.441684 0 0 255 0 
-0.178752 -0.0894959 -0.130195 0 0 255 0 
0.0628186 0.245112 0.0265956 0 0 255 0 
-0.216316 -0.262111 -0.410068 0 0 255 0 
-0.301827 0.110724 -0.464905 0 0 255 0 
-0.298029 0.0388541 -0.417706 0 0 255 0 
-0.225578 0.406416 0.0173918 0 0 255 0 
0.12031 0.265633 -0.203155 0 0 255 0 
0.0952657 0.324629 0.439255 0 0 255 0 
-0.273105 0.146574 -0.425007 0 0 255 0 
-0.294628 0.0199773 -0.414247 0 0 255 0 
-0.211398 0.333723 -0.465519 0 0 255 0 
0.173231 -0.169091 -0.265938 0 0 255 0 
-0.127939 0.405715 -0.478732 0 0 255 0 
-0.159827 0.273763 0.0140566 0 0 255 0 
0.0899373 -0.327846 -0.357125 0 0 255 0 
0.127747 -0.313031 -0.280799 0 0 255 0 
0.10715 -0.336597 -0.382191 0 0 255 0 
0.177252 -0.168632 -0.056053 0 0 255 0 
-0.170968 -0.188045 -0.207106 0 0 255 0 
-0.0934746 0.391155 -0.2478 0 0 255 0 
-0.0422534 0.423786 0.109083 0 0 255 0 
0.193359 -0.0410745 -0.18775 0 0 255 0 
0.021468 0.276642 0.238479 0 0 255 0 
-0.091553 0.352747 0.0417176 0 0 255 0 
0.216041 0.216599 -0.351507 0 0 255 0 
-0.236339 0.43848 -0.0329707 0 0 255 0 
0.294759 0.135934 -0.473535 0 0 255 0 
-0.151223 0.407174 0.112935 0 0 255 0 
0.160257 -0.236 -0.197919 0 0 255 0 
-0.256492 0.302421 -0.0854052 0 0 255 0 
-0.0689669 0.414264 0.087566 0 0 255 0 
0.255939 -0.18424 -0.41804 0 0 255 0 
-0.189404 -0.198342 -0.329959 0 0 255 0 
-0.184238 0.265331 0.014083 0 0 255 0 
0.0225801 0.310393 -0.0300354 0 0 255 0 
-0.199019 0.277136 -0.133785 0 0 255 0 
0.174131 0.274025 -0.120472 0 0 255 0 
-0.285374 -0.235814 -0.44873 0 0 255 0 
-0.210384 0.237368 -0.248866 0 0 255 0 
0.0602477 0.348848 -0.292062 0 0 255 0 
0.0230615 0.394355 0.43411 0 0 255 0 
-0.0702525 -0.31387 -0.303774 0 0 255 0 
0.145839 0.268352 -0.164035 0 0 255 0 
-0.0850428 0.320024 0.462831 0 0 255 0 
0.225428 0.380977 0.0910464 0 0 255 0 
0.247988 0.152192 -0.412308 0 0 255 0 
0.0139546 0.42225 0.153761 0 0 255 0 
0.161212 -0.271342 -0.228935 0 0 255 0 
-0.191119 0.279286 -0.000271475 0 0 255 0 
0.0764116 0.410672 0.0607175 0 0 255 0 
0.19662 0.00805436 -0.301256 0 0 255 0 
0.00937915 0.430535 0.105658 0 0 255 0 
-0.207634 0.0994461 -0.272916 0 0 255 0 
0.322096 -0.0727907 -0.480787 0 0 255 0 
0.139175 -0.294669 -0.306036 0 0 255 0 
0.247155 0.339958 -0.0548527 0 0 255 0 
0.0976383 -0.242292 -0.180141 0 0 255 0 
0.317154 -0.129604 -0.465309 0 0 255 0 
0.179065 -0.234359 -0.34447 0 0 255 0 
-0.19285 0.00016916 -0.0856387 0 0 255 0 
0.311737 -0.153856 -0.443938 0 0 255 0 
0.207492 0.278297 -0.00924915 0 0 255 0 
0.0408215 0.364516 -0.319084 0 0 255 0 
0.322173 -0.0745957 -0.443876 0 0 255 0 
0.171767 -0.105468 -0.154145 0 0 255 0 
0.153072 -0.267223 -0.312895 0 0 255 0 
0.105475 0.252266 -0.344166 0 0 255 0 
-0.152887 0.254497 -0.395683 0 0 255 0 
-0.246384 0.367985 0.0086483 0 0 255 0 
0.155391 -0.0918882 -0.0263317 0 0 255 0 
-0.205754 0.240878 -0.292645 0 0 255 0 
0.0828599 0.390762 -0.281415 0 0 255 0 
-0.0923328 0.364287 -0.175628 0 0 255 0 
0.0275885 0.40215 0.401194 0 0 255 0 
-0.0870236 0.397421 -0.399 0 0 255 0 
-0.212814 0.154955 -0.296216 0 0 255 0 
0.0775525 0.392745 -0.130058 0 0 255 0 
0.276406 0.022189 -0.404564 0 0 255 0 
0.116173 0.280475 -0.0298103 0 0 255 0 
0.243048 0.354836 0.0036111 0 0 255 0 
0.161883 0.345565 0.204642 0 0 255 0 
0.20088 0.0335969 -0.283574 0 0 255 0 
0.169348 0.257431 -0.324924 0 0 255 0 
-0.00359604 -0.400072 -0.322562 0 0 255 0 
0.162469 0.287131 -0.421768 0 0 255 0 
-0.238955 0.196561 -0.134998 0 0 255 0 
-0.153564 -0.248626 -0.196188 0 0 255 0 
0.198703 -0.0162386 -0.305412 0 0 255 0 
0.0848913 0.241414 -0.00678283 0 0 255 0 
-0.138079 0.278061 -0.0616634 0 0 255 0 
0.0908226 0.381568 0.0436979 0 0 255 0 
-0.141854 0.332716 0.221914 0 0 255 0 
-0.0315227 0.271051 0.1765 0 0 255 0 
0.0113778 0.287398 -0.425421 0 0 255 0 
0.173764 -0.131913 -0.137662 0 0 255 0 
-0.189694 -0.0622777 -0.209603 0 0 255 0 
-0.0509656 -0.250881 -0.03636 0 0 255 0 
-0.250387 -0.228416 -0.422112 0 0 255 0 
0.23075 0.153125 -0.184039 0 0 255 0 
-0.218342 0.0864483 -0.161064 0 0 255 0 
-0.113768 -0.428607 -0.458609 0 0 255 0 
-0.218292 0.202112 -0.0832037 0 0 255 0 
-0.212158 -0.0618238 -0.340716 0 0 255 0 
-0.0230243 0.211496 0.308906 0 0 255 0 
-0.0865814 -0.313677 -0.282403 0 0 255 0 
-0.119576 0.254021 -0.355892 0 0 255 0 
0.261737 -0.284465 -0.483245 0 0 255 0 
0.17911 0.253615 -0.39055 0 0 255 0 
0.0596976 0.39896 0.254567 0 0 255 0 
0.0780848 0.300485 0.213452 0 0 255 0 
0.0278904 0.352321 -0.220081 0 0 255 0 
-0.153124 -0.28672 -0.258552 0 0 255 0 
-0.0455907 0.24457 0.0285994 0 0 255 0 
0.203881 -0.0778865 -0.328002 0 0 255 0 
0.15842 -0.234337 -0.0497125 0 0 255 0 
0.215773 -0.0501711 -0.338545 0 0 255 0 
-0.0903018 0.336879 -0.153131 0 0 255 0 
0.0114014 0.412999 0.20063 0 0 255 0 
-0.079615 0.278546 0.33414 0 0 255 0 
0.0488906 0.27303 0.327194 0 0 255 0 
0.256926 0.310327 -0.102333 0 0 255 0 
0.0579262 -0.386123 -0.213402 0 0 255 0 
0.193975 -0.306388 -0.407896 0 0 255 0 
-0.207204 0.0663115 -0.259957 0 0 255 0 
0.0703042 0.313636 0.0220552 0 0 255 0 
0.249714 0.410675 -0.00728491 0 0 255 0 
0.176397 0.426489 0.12723 0 0 255 0 
0.155363 -0.246367 -0.301387 0 0 255 0 
0.247175 -0.309351 -0.480122 0 0 255 0 
0.0595042 -0.277577 -0.18311 0 0 255 0 
0.260986 0.231585 -0.436448 0 0 255 0 
0.206819 0.421566 0.0866523 0 0 255 0 
-0.0785583 0.350883 0.327961 0 0 255 0 
-0.109643 -0.314176 -0.280559 0 0 255 0 
-0.185795 0.269453 -0.169393 0 0 255 0 
0.0894631 0.351786 0.0638428 0 0 255 0 
0.0607773 0.242412 -0.00657222 0 0 255 0 
-0.16591 -0.215566 -0.191414 0 0 255 0 
0.18332 -0.0994568 -0.224696 0 0 255 0 
-0.116228 0.391235 0.14698 0 0 255 0 
-0.18304 -0.154792 -0.0863247 0 0 255 0 
0.00893259 0.403554 0.234918 0 0 255 0 
0.015587 0.439149 0.0474322 0 0 255 0 
0.0646994 0.365148 -0.381729 0 0 255 0 
-0.277726 0.0441908 -0.403249 0 0 255 0 
0.193421 0.273669 -0.154582 0 0 255 0 
-0.0813163 -0.364337 -0.398502 0 0 255 0 
0.0876618 0.371276 -0.404419 0 0 255 0 
0.210587 0.049146 -0.197863 0 0 255 0 
-0.0931042 0.340027 -0.0087755 0 0 255 0 
-0.141998 -0.345321 -0.404418 0 0 255 0 
0.0122014 0.263449 0.278664 0 0 255 0 
-0.0610384 -0.363512 -0.202807 0 0 255 0 
-0.135087 0.2762 -0.0478589 0 0 255 0 
-0.2191 0.103072 -0.14596 0 0 255 0 
-0.322495 -0.0699028 -0.472025 0 0 255 0 
-0.274901 -0.264657 -0.468104 0 0 255 0 
-0.184801 -0.040786 -0.117711 0 0 255 0 
-0.150769 0.275217 -0.0878276 0 0 255 0 
0.0373328 -0.446777 -0.443675 0 0 255 0 
0.159199 0.360635 0.11599 0 0 255 0 
0.250983 0.260492 -0.136915 0 0 255 0 
0.196839 -0.358631 -0.430774 0 0 255 0 
0.0335672 0.244135 0.00138754 0 0 255 0 
-0.116019 0.281918 -0.0314052 0 0 255 0 
-0.223925 0.125611 -0.137307 0 0 255 0 
0.299266 -0.199621 -0.446384 0 0 255 0 
0.0371652 0.336224 -0.252924 0 0 255 0 
0.194583 0.256906 -0.283596 0 0 255 0 
-0.0486646 -0.401259 -0.246392 0 0 255 0 
0.296904 -0.107186 -0.425819 0 0 255 0 
-0.195476 0.277927 -0.0825883 0 0 255 0 
-0.0831468 0.353796 -0.195142 0 0 255 0 
0.222404 0.116965 -0.219639 0 0 255 0 
-0.134447 0.274648 -0.0982679 0 0 255 0 
-0.0881168 0.376805 0.100473 0 0 255 0 
-0.196539 0.0191493 -0.254993 0 0 255 0 
-0.0960825 0.371376 0.0253954 0 0 255 0 
-0.177743 -0.177519 -0.11027 0 0 255 0 
-0.185514 -0.10711 -0.0658335 0 0 255 0 
-0.154432 0.274321 -0.113 0 0 255 0 
-0.215551 0.186366 -0.0310743 0 0 255 0 
-0.203186 0.0435824 -0.277884 0 0 255 0 
-0.0606 -0.366072 -0.303483 0 0 255 0 
0.223108 0.260511 -0.0718608 0 0 255 0 
0.0418177 0.250741 0.355522 0 0 255 0 
0.212363 0.114026 -0.298154 0 0 255 0 
-0.167963 -0.213846 -0.237251 0 0 255 0 
0.0220883 0.385341 -0.158861 0 0 255 0 
0.0249428 0.373374 -0.183427 0 0 255 0 
0.0793636 0.374055 -0.175553 0 0 255 0 
0.116871 0.38667 0.256312 0 0 255 0 
-0.231774 -0.130194 -0.380334 0 0 255 0 
-0.0514779 0.277754 0.170196 0 0 255 0 
0.203699 0.125618 -0.0964059 0 0 255 0 
-0.2139 0.238834 -0.22619 0 0 255 0 
0.0518071 0.427965 0.0682984 0 0 255 0 
-0.183427 -0.136279 -0.0684226 0 0 255 0 
-0.0114715 0.24672 -0.326556 0 0 255 0 
0.133824 -0.251408 -0.0562801 0 0 255 0 
-0.105595 0.256789 0.467435 0 0 255 0 
-0.037954 0.223169 0.418703 0 0 255 0 
0.24947 0.30746 -0.133482 0 0 255 0 
-0.0557613 0.300097 0.302561 0 0 255 0 
-0.0604611 -0.29023 -0.153426 0 0 255 0 
-0.266887 -0.121838 -0.416316 0 0 255 0 
-0.0467603 0.39423 0.259592 0 0 255 0 
-0.0274857 0.434507 -0.446946 0 0 255 0 
-0.166097 0.268648 -0.16472 0 0 255 0 
-0.216059 0.169116 -0.322437 0 0 255 0 
-0.00471834 0.439022 -0.473366 0 0 255 0 
0.0494079 0.284507 0.398144 0 0 255 0 
-0.100443 0.395371 -0.423614 0 0 255 0 
0.150166 -0.342023 -0.403656 0 0 255 0 
0.0635879 -0.329143 -0.205687 0 0 255 0 
-0.172662 -0.18622 -0.231228 0 0 255 0 
-0.203586 0.0261015 -0.155652 0 0 255 0 
0.250069 0.256153 -0.163722 0 0 255 0 
-0.0611152 0.305373 0.045952 0 0 255 0 
0.207563 -0.212491 -0.369088 0 0 255 0 
-0.0883285 0.336915 0.0840293 0 0 255 0 
-0.0427422 0.408157 -0.3729 0 0 255 0 
-0.147281 -0.298816 -0.282728 0 0 255 0 
0.212759 0.148751 -0.302368 0 0 255 0 
-0.209418 0.193075 -0.275254 0 0 255 0 
-0.0973592 -0.43554 -0.456039 0 0 255 0 
0.194724 0.0249546 -0.257999 0 0 255 0 
-0.0518083 -0.448476 -0.455687 0 0 255 0 
0.149345 0.272593 -0.123203 0 0 255 0 
0.0510638 -0.388466 -0.192313 0 0 255 0 
0.109528 -0.430738 -0.459618 0 0 255 0 
0.0915939 0.348821 -0.253357 0 0 255 0 
-0.197008 0.341642 -0.436233 0 0 255 0 
-0.208995 0.0364045 -0.227982 0 0 255 0 
-0.0495291 0.419398 -0.219795 0 0 255 0 
0.1087 -0.248647 -0.0806962 0 0 255 0 
-0.0628095 0.401217 0.362008 0 0 255 0 
0.160021 0.278521 -0.0145215 0 0 255 0 
0.242243 0.373769 0.0255892 0 0 255 0 
-0.185623 -0.379718 -0.475357 0 0 255 0 
0.209826 0.209488 -0.257639 0 0 255 0 
-0.03923 0.234659 -0.0266434 0 0 255 0 
-0.249033 0.251049 -0.177958 0 0 255 0 
-0.176046 -0.390953 -0.46651 0 0 255 0 
0.178927 0.310725 -0.421434 0 0 255 0 
-0.226527 0.198499 -0.410493 0 0 255 0 
0.0915363 0.365889 -0.155863 0 0 255 0 
0.234895 -0.322991 -0.440673 0 0 255 0 
0.0597847 -0.255541 -0.0617921 0 0 255 0 
-0.0983841 0.355634 -0.019165 0 0 255 0 
0.000134704 0.26991 0.254437 0 0 255 0 
-0.180919 0.258177 -0.346167 0 0 255 0 
-0.184685 0.266932 -0.216236 0 0 255 0 
0.12937 0.403629 0.141285 0 0 255 0 
0.178593 -0.101468 -0.124979 0 0 255 0 
0.0550598 0.281968 0.129824 0 0 255 0 
-0.198981 -0.0112966 -0.207054 0 0 255 0 
-0.0616368 0.301306 0.0652701 0 0 255 0 
1.82585e-005 -0.25489 -0.0775328 0 0 255 0 
0.180969 0.360289 -0.435195 0 0 255 0 
-0.217688 0.279875 -0.183226 0 0 255 0 
0.322199 -0.0239437 -0.480276 0 0 255 0 
0.0350492 -0.236026 -0.0214888 0 0 255 0 
-0.106626 0.263968 -0.247337 0 0 255 0 
-0.159839 -0.267907 -0.32685 0 0 255 0 
0.0327944 0.397377 -0.127508 0 0 255 0 
-0.272607 0.208395 -0.448543 0 0 255 0 
0.0239426 0.271972 0.197249 0 0 255 0 
0.0721362 0.42141 -0.435575 0 0 255 0 
0.301235 -0.0277769 -0.424343 0 0 255 0 
-0.0756567 0.24528 0.398159 0 0 255 0 
0.0176493 -0.286126 -0.0896756 0 0 255 0 
0.132854 0.278461 -0.416363 0 0 255 0 
-0.313384 0.0348455 -0.436915 0 0 255 0 
-0.0795809 0.408152 -0.321142 0 0 255 0 
-0.0632942 -0.450496 -0.476466 0 0 255 0 
0.227135 0.118946 -0.351101 0 0 255 0 
-0.111956 0.276797 -0.0586399 0 0 255 0 
-0.217603 0.143468 -0.324026 0 0 255 0 
0.171596 0.358015 0.188358 0 0 255 0 
-0.136 0.22903 -0.0258212 0 0 255 0 
0.120796 0.257827 -0.408711 0 0 255 0 
0.0343151 0.33716 0.310408 0 0 255 0 
-0.279629 0.187079 -0.448453 0 0 255 0 
-0.0625587 0.418041 -0.336177 0 0 255 0 
-0.121446 0.409354 0.206432 0 0 255 0 
0.0713094 -0.231981 -0.163254 0 0 255 0 
-0.261382 0.0365336 -0.394445 0 0 255 0 
-0.214976 0.27597 -0.0132871 0 0 255 0 
0.191908 0.366286 0.112005 0 0 255 0 
0.186572 -0.0684944 -0.0902687 0 0 255 0 
0.205375 0.281478 -0.140212 0 0 255 0 
0.122416 0.26749 -0.169154 0 0 255 0 
0.0411563 0.342682 -0.306101 0 0 255 0 
-0.275015 -0.257664 -0.444395 0 0 255 0 
0.175994 -0.205547 -0.314361 0 0 255 0 
0.030164 0.317777 -0.213346 0 0 255 0 
-0.168589 0.347596 0.152678 0 0 255 0 
-0.19278 -0.370004 -0.442499 0 0 255 0 
0.0766056 -0.224004 -0.130223 0 0 255 0 
-0.200679 0.103316 -0.03534 0 0 255 0 
0.312677 0.0575708 -0.47795 0 0 255 0 
0.0873212 0.346393 -0.227552 0 0 255 0 
0.30941 0.077206 -0.461972 0 0 255 0 
0.154216 -0.246202 -0.0772324 0 0 255 0 
0.0858708 0.358467 -0.313161 0 0 255 0 
0.219228 0.205578 -0.376762 0 0 255 0 
-0.070127 0.394025 0.259285 0 0 255 0 
-0.171991 0.266558 -0.191597 0 0 255 0 
0.129839 0.277149 -0.0603139 0 0 255 0 
-0.199872 -0.00419417 -0.164864 0 0 255 0 
0.0187511 -0.388318 -0.183945 0 0 255 0 
-0.0426163 0.37887 0.463887 0 0 255 0 
-0.0833565 0.296087 -0.42248 0 0 255 0 
0.0321106 -0.391831 -0.199356 0 0 255 0 
-0.0505904 0.405784 0.322649 0 0 255 0 
0.187526 -0.332155 -0.415321 0 0 255 0 
-0.165428 -0.229327 -0.110751 0 0 255 0 
0.257538 -0.291637 -0.449517 0 0 255 0 
-0.0610117 0.430459 0.0302737 0 0 255 0 
0.0333471 0.334734 -0.222173 0 0 255 0 
-0.272112 0.387676 -0.0887936 0 0 255 0 
0.278227 0.08113 -0.410061 0 0 255 0 
0.0823031 0.381894 -0.309768 0 0 255 0 
-0.317297 -0.0962937 -0.438847 0 0 255 0 
0.218263 0.165143 -0.11457 0 0 255 0 
0.112757 0.365935 0.143976 0 0 255 0 
-0.115281 0.315626 -0.422363 0 0 255 0 
-0.231825 0.302245 -0.456729 0 0 255 0 
0.174783 0.340908 -0.424739 0 0 255 0 
0.266149 0.413455 -0.00923886 0 0 255 0 
0.0779989 0.317822 -0.206838 0 0 255 0 
-0.0200862 0.267271 -0.232599 0 0 255 0 
-0.31651 0.0140599 -0.436186 0 0 255 0 
-0.237338 -0.204602 -0.409946 0 0 255 0 
-0.178325 -0.0791702 -0.161629 0 0 255 0 
-0.068857 0.302954 0.240856 0 0 255 0 
-0.20392 0.00919115 -0.22786 0 0 255 0 
-0.200903 -0.214898 -0.363986 0 0 255 0 
0.0930762 0.341164 0.117964 0 0 255 0 
0.30389 0.0732211 -0.430464 0 0 255 0 
-0.181756 -0.278519 -0.369404 0 0 255 0 
0.179923 -0.123064 -0.22514 0 0 255 0 
0.14517 0.280611 0.00541976 0 0 255 0 
0.155579 -0.0396006 -0.0249464 0 0 255 0 
-0.0839055 0.364946 -0.220362 0 0 255 0 
-0.0613238 -0.411845 -0.416013 0 0 255 0 
-0.0662228 0.403659 0.388059 0 0 255 0 
-0.00316365 0.254155 -0.301805 0 0 255 0 
-0.177226 -0.231903 -0.0864859 0 0 255 0 
-0.0882478 0.381736 -0.283333 0 0 255 0 
-0.217624 0.107707 -0.317481 0 0 255 0 
0.203058 0.00951952 -0.196614 0 0 255 0 
-0.178736 -0.133609 -0.25256 0 0 255 0 
-0.0144806 0.235614 0.455287 0 0 255 0 
0.0598241 -0.299938 -0.129506 0 0 255 0 
-0.282692 0.173505 -0.474101 0 0 255 0 
-0.172102 -0.173162 -0.186504 0 0 255 0 
0.0891333 0.338654 -0.203496 0 0 255 0 
0.258865 -0.133922 -0.412876 0 0 255 0 
0.0824351 0.425988 -0.0352958 0 0 255 0 
-0.19797 0.141715 -0.0181674 0 0 255 0 
0.099709 0.353051 -0.0320053 0 0 255 0 
-0.022039 0.409869 0.231684 0 0 255 0 
-0.287972 0.159695 -0.468275 0 0 255 0 
-0.0900156 0.37504 -0.197246 0 0 255 0 
-0.304638 0.0779274 -0.486364 0 0 255 0 
-0.0942285 0.330407 -0.41467 0 0 255 0 
-0.217283 0.0584348 -0.310033 0 0 255 0 
0.0893332 0.3854 -0.113048 0 0 255 0 
0.188322 0.265005 -0.414878 0 0 255 0 
-0.0152918 -0.257922 -0.047994 0 0 255 0 
-0.0658403 0.425334 -0.282555 0 0 255 0 
-0.110515 0.400174 0.24157 0 0 255 0 
0.220148 0.210195 -0.407544 0 0 255 0 
0.0757722 0.29417 0.458223 0 0 255 0 
-0.0240611 0.349707 -0.419472 0 0 255 0 
0.0830813 0.306409 0.146998 0 0 255 0 
-0.0838722 0.390458 0.376996 0 0 255 0 
-0.0907577 -0.318601 -0.255657 0 0 255 0 
0.176816 0.268317 -0.17134 0 0 255 0 
-0.186602 -0.0755507 -0.0917538 0 0 255 0 
0.0422125 0.295366 0.259064 0 0 255 0 
0.208564 0.145377 -0.236439 0 0 255 0 
-0.156222 0.356113 0.223651 0 0 255 0 
-0.157956 0.268199 -0.220241 0 0 255 0 
0.193765 -0.00072343 -0.268195 0 0 255 0 
-0.0133952 0.283149 0.0282189 0 0 255 0 
-0.0473257 -0.398221 -0.22498 0 0 255 0 
0.184115 -0.0796914 -0.172665 0 0 255 0 
-0.0716703 0.295648 0.183188 0 0 255 0 
-0.0439835 -0.403274 -0.283841 0 0 255 0 
0.118654 -0.387837 -0.41816 0 0 255 0 
-0.146752 0.372583 -0.428348 0 0 255 0 
-0.270419 -0.247416 -0.430086 0 0 255 0 
-0.032395 -0.393524 -0.201522 0 0 255 0 
-0.256037 0.310299 -0.121927 0 0 255 0 
-0.265509 0.341613 -0.0724682 0 0 255 0 
0.151325 0.268162 -0.180206 0 0 255 0 
-0.109654 -0.322213 -0.352682 0 0 255 0 
0.231625 0.155235 -0.142964 0 0 255 0 
-0.0436017 0.43298 0.062283 0 0 255 0 
0.0954738 0.351125 0.0208865 0 0 255 0 
0.199949 0.0821844 -0.126212 0 0 255 0 
-0.134323 0.276668 -0.0180397 0 0 255 0 
-0.20138 -0.323146 -0.419084 0 0 255 0 
-0.0792674 0.389536 0.423324 0 0 255 0 
0.255485 0.278662 -0.112511 0 0 255 0 
0.175951 0.272382 -0.143979 0 0 255 0 
0.219367 0.210882 -0.0415213 0 0 255 0 
0.0206489 0.2347 -0.0265202 0 0 255 0 
-0.266044 0.194025 -0.429236 0 0 255 0 
-0.0103823 0.407928 -0.107753 0 0 255 0 
0.311152 -0.12913 -0.488692 0 0 255 0 
0.191961 0.280813 -0.0294883 0 0 255 0 
-0.16049 -0.352271 -0.415458 0 0 255 0 
-0.289449 -0.00166535 -0.414859 0 0 255 0 
0.313506 -0.127844 -0.440072 0 0 255 0 
-0.240814 0.285725 -0.452912 0 0 255 0 
-0.0305271 0.408361 -0.227645 0 0 255 0 
-0.198112 0.0712575 -0.0437261 0 0 255 0 
-0.0531065 0.28359 0.115709 0 0 255 0 
-0.0507938 0.427113 -0.271026 0 0 255 0 
0.188979 -0.0089265 -0.0974565 0 0 255 0 
-0.287325 -0.16863 -0.425017 0 0 255 0 
0.141024 -0.413529 -0.468904 0 0 255 0 
-0.193059 -0.0213602 -0.0578609 0 0 255 0 
-0.185392 -0.178461 -0.3221 0 0 255 0 
0.0481126 0.4486 -0.0333535 0 0 255 0 
-0.287729 0.431044 -0.0520426 0 0 255 0 
0.00205897 0.406755 0.360063 0 0 255 0 
0.0456292 -0.253 -0.0384722 0 0 255 0 
-0.0837512 0.390154 0.0838762 0 0 255 0 
-0.14407 0.389334 -0.440487 0 0 255 0 
-0.253254 0.436673 -0.0444184 0 0 255 0 
0.203264 0.2433 -0.39532 0 0 255 0 
0.0983675 0.343069 -0.152296 0 0 255 0 
-0.0985721 0.382381 -0.00540083 0 0 255 0 
-0.0376607 0.404889 0.243288 0 0 255 0 
-0.23427 0.281179 -0.433483 0 0 255 0 
0.173152 -0.012513 -0.0288019 0 0 255 0 
-0.0598314 0.433155 -0.474586 0 0 255 0 
-0.134403 0.253204 -0.367728 0 0 255 0 
-0.128493 0.264098 -0.278456 0 0 255 0 
-0.226174 0.123226 -0.218587 0 0 255 0 
-0.0119711 0.448518 -0.0351757 0 0 255 0 
-0.197353 0.118078 -0.0243747 0 0 255 0 
-0.146553 0.25906 -0.318077 0 0 255 0 
0.201312 0.157253 -0.0147863 0 0 255 0 
-0.226696 0.131163 -0.16114 0 0 255 0 
-0.178617 -0.10602 -0.277107 0 0 255 0 
-0.146935 0.389558 0.224171 0 0 255 0 
-0.0359889 -0.379653 -0.400967 0 0 255 0 
0.241902 -0.0078313 -0.366461 0 0 255 0 
-0.209344 0.260659 -0.225573 0 0 255 0 
0.0077613 -0.390011 -0.348946 0 0 255 0 
0.177203 -0.379661 -0.433843 0 0 255 0 
0.0979779 0.311106 0.232721 0 0 255 0 
0.105438 0.408827 0.226819 0 0 255 0 
-0.025963 0.379485 0.319062 0 0 255 0 
-0.229559 -0.152342 -0.377337 0 0 255 0 
-0.0862144 0.311433 0.176953 0 0 255 0 
-0.11403 0.269221 0.429707 0 0 255 0 
-0.241602 -0.296645 -0.428282 0 0 255 0 
-0.20997 0.036906 -0.296561 0 0 255 0 
-0.261822 0.376448 0.00307531 0 0 255 0 
0.207912 0.163594 -0.263315 0 0 255 0 
-0.100227 -0.304259 -0.309155 0 0 255 0 
-0.0711334 0.415457 -0.206909 0 0 255 0 
0.171479 -0.0643403 -0.0327016 0 0 255 0 
-0.306004 0.0845753 -0.442019 0 0 255 0 
0.0665775 0.387322 -0.397738 0 0 255 0 
0.194201 0.424317 0.105059 0 0 255 0 
0.273683 0.435802 -0.0579702 0 0 255 0 
0.266331 0.108227 -0.398718 0 0 255 0 
-0.237338 0.118482 -0.36838 0 0 255 0 
0.0991936 0.322727 -0.409167 0 0 255 0 
-0.0998328 0.341531 0.345533 0 0 255 0 
0.0588009 -0.376769 -0.31851 0 0 255 0 
0.282981 0.0540262 -0.410229 0 0 255 0 
0.0449035 0.418779 0.180112 0 0 255 0 
-0.0830251 0.315314 0.330544 0 0 255 0 
-0.116747 0.268622 -0.224203 0 0 255 0 
-0.134943 0.366091 0.35351 0 0 255 0 
-0.0163052 -0.389908 -0.351284 0 0 255 0 
0.0370508 -0.403787 -0.285891 0 0 255 0 
0.194485 0.369327 0.0872491 0 0 255 0 
-0.139413 0.268261 -0.161586 0 0 255 0 
0.0657077 -0.343369 -0.359594 0 0 255 0 
-0.223638 0.157101 -0.343439 0 0 255 0 
-0.0405835 0.243915 0.00236222 0 0 255 0 
-0.268201 0.00689723 -0.401406 0 0 255 0 
-0.0991921 0.400562 0.330169 0 0 255 0 
-0.23611 0.138864 -0.373136 0 0 255 0 
-0.0896251 0.379948 0.0604525 0 0 255 0 
0.118167 0.253147 -0.332234 0 0 255 0 
0.209972 0.211812 -0.283711 0 0 255 0 
0.0394758 0.350401 -0.390184 0 0 255 0 
0.212056 0.190458 -0.230302 0 0 255 0 
-0.185824 -0.0493846 -0.0492083 0 0 255 0 
-0.0309796 0.275345 0.122369 0 0 255 0 
-0.0702882 -0.320183 -0.278234 0 0 255 0 
-0.192761 0.364954 0.133436 0 0 255 0 
0.0605876 -0.355446 -0.336683 0 0 255 0 
-0.0253472 0.441634 -0.0593056 0 0 255 0 
-0.0308031 -0.398796 -0.307153 0 0 255 0 
-0.0894626 0.388596 -0.232002 0 0 255 0 
0.14766 -0.216718 -0.149359 0 0 255 0 
-0.0185381 0.422718 0.14917 0 0 255 0 
0.0943402 0.341334 -0.00453872 0 0 255 0 
0.214415 0.175773 -0.0619294 0 0 255 0 
0.0618692 0.386186 -0.214334 0 0 255 0 
0.170155 -0.195411 -0.234171 0 0 255 0 
-0.21432 0.160067 -0.111885 0 0 255 0 
0.0609502 -0.344935 -0.296555 0 0 255 0 
-0.103305 0.328286 0.256574 0 0 255 0 
0.137233 0.255362 -0.328617 0 0 255 0 
0.181906 0.379279 0.18244 0 0 255 0 
-0.092779 0.298835 0.346879 0 0 255 0 
0.152261 0.264519 -0.261546 0 0 255 0 
0.211788 0.204427 -0.00362353 0 0 255 0 
-0.318955 -0.0898905 -0.485796 0 0 255 0 
0.205596 0.124897 -0.250405 0 0 255 0 
-0.123659 0.272362 -0.133892 0 0 255 0 
-0.24402 -0.31689 -0.474577 0 0 255 0 
0.0241793 0.264785 -0.230663 0 0 255 0 
0.265237 -0.108358 -0.412709 0 0 255 0 
-0.0784925 -0.233939 -0.111028 0 0 255 0 
0.0109293 0.219437 0.333497 0 0 255 0 
0.0918859 0.310342 0.197059 0 0 255 0 
0.0527954 0.296239 0.327189 0 0 255 0 
-0.0223258 0.437764 0.0667657 0 0 255 0 
-0.0150952 0.430957 0.324439 0 0 255 0 
0.235667 0.0249993 -0.374407 0 0 255 0 
-0.0901335 0.33951 -0.052507 0 0 255 0 
0.0894893 0.382932 0.384394 0 0 255 0 
0.176653 0.425892 0.14646 0 0 255 0 
-0.226636 0.26991 -0.052257 0 0 255 0 
0.174848 -0.24122 -0.0649518 0 0 255 0 
-0.021266 -0.451075 -0.450721 0 0 255 0 
0.168331 -0.195164 -0.140917 0 0 255 0 
-0.0684356 -0.325577 -0.228047 0 0 255 0 
-0.157031 -0.250423 -0.313103 0 0 255 0 
0.119788 0.320211 0.234786 0 0 255 0 
-0.2314 0.173995 -0.126472 0 0 255 0 
0.146717 0.343751 0.236353 0 0 255 0 
0.0197417 0.3361 0.475594 0 0 255 0 
-0.0822796 0.388981 -0.353403 0 0 255 0 
-0.00404107 0.439746 0.0675073 0 0 255 0 
-0.0336644 0.425671 0.127754 0 0 255 0 
-0.026094 0.399655 0.441753 0 0 255 0 
-0.2274 0.410054 0.0383217 0 0 255 0 
-0.237768 0.397726 0.0351758 0 0 255 0 
0.0560096 0.438297 0.00385447 0 0 255 0 
-0.283426 0.126588 -0.426669 0 0 255 0 
0.0499406 -0.448732 -0.454512 0 0 255 0 
-0.277796 -0.0968762 -0.417737 0 0 255 0 
-0.0824756 0.423113 -0.30175 0 0 255 0 
-0.260912 0.319751 -0.108278 0 0 255 0 
0.168947 0.246888 0.0211637 0 0 255 0 
-0.0799804 0.369617 -0.264923 0 0 255 0 
-0.300535 0.111368 -0.441945 0 0 255 0 
0.126813 0.33691 0.253705 0 0 255 0 
-0.062295 0.244683 0.00994035 0 0 255 0 
-0.00544799 0.387555 0.265241 0 0 255 0 
0.0604289 -0.286604 -0.153246 0 0 255 0 
-0.266159 0.436259 -0.0562886 0 0 255 0 
0.0075852 0.269891 0.214115 0 0 255 0 
-0.302958 -0.162668 -0.497566 0 0 255 0 
-0.0854879 0.317466 0.111702 0 0 255 0 
0.314756 0.0551633 -0.443229 0 0 255 0 
-0.228381 0.138102 -0.18729 0 0 255 0 
-0.0155604 -0.40505 -0.286902 0 0 255 0 
-0.17352 -0.158027 -0.275175 0 0 255 0 
-0.210447 0.230907 -0.330345 0 0 255 0 
0.0917887 0.403134 -0.0520089 0 0 255 0 
-0.264796 0.0663343 -0.391644 0 0 255 0 
0.00270315 0.26585 -0.171917 0 0 255 0 
0.0687617 0.313134 -0.020699 0 0 255 0 
-0.10078 0.40222 -0.0311068 0 0 255 0 
-0.0438545 0.422218 -0.251203 0 0 255 0 
-0.285041 0.416526 -0.0155721 0 0 255 0 
-0.00709635 0.239155 0.485238 0 0 255 0 
-0.169395 -0.333942 -0.400959 0 0 255 0 
-0.25182 0.142576 -0.407663 0 0 255 0 
-0.121844 0.404281 0.223411 0 0 255 0 
-0.136428 -0.31497 -0.222153 0 0 255 0 
0.20132 0.00181814 -0.171338 0 0 255 0 
0.0950214 0.337916 0.14843 0 0 255 0 
-0.151257 0.279267 -0.0267611 0 0 255 0 
0.046513 0.40639 -0.105742 0 0 255 0 
-0.250348 -0.120065 -0.400987 0 0 255 0 
-0.314009 -0.115977 -0.494681 0 0 255 0 
0.112437 -0.247354 -0.0440886 0 0 255 0 
-0.128716 -0.246941 -0.0847147 0 0 255 0 
0.150083 0.267764 -0.23631 0 0 255 0 
-0.0687687 0.424586 -0.104254 0 0 255 0 
-0.0893513 0.394853 -0.179394 0 0 255 0 
0.168501 0.377862 -0.455968 0 0 255 0 
0.0825674 0.312017 0.113348 0 0 255 0 
0.182855 0.357305 0.133969 0 0 255 0 
0.0561571 0.24486 0.00707724 0 0 255 0 
0.121486 0.262915 -0.280662 0 0 255 0 
-0.21655 0.189209 -0.326964 0 0 255 0 
0.0663688 0.303529 -0.0655155 0 0 255 0 
-0.322151 -0.0957958 -0.458909 0 0 255 0 
-0.0221417 0.415386 0.201593 0 0 255 0 
-0.0813486 0.421451 -0.443128 0 0 255 0 
-0.00947911 0.228329 0.421012 0 0 255 0 
-0.0594494 -0.363906 -0.392822 0 0 255 0 
-0.164013 0.0211969 -0.020462 0 0 255 0 
0.223215 0.117344 -0.161504 0 0 255 0 
-0.18621 0.422034 0.141128 0 0 255 0 
0.193013 0.0254607 -0.0910511 0 0 255 0 
0.210221 0.211144 -0.307271 0 0 255 0 
0.21454 0.0789568 -0.296536 0 0 255 0 
0.0661185 0.412382 0.353609 0 0 255 0 
0.0455215 0.294172 0.0523926 0 0 255 0 
0.207522 0.128777 -0.0634127 0 0 255 0 
0.197431 -0.0175011 -0.208804 0 0 255 0 
0.22167 0.245409 -0.010344 0 0 255 0 
0.144422 0.278121 -0.0414794 0 0 255 0 
0.216419 0.328563 -0.464978 0 0 255 0 
-0.00267618 0.26359 -0.102193 0 0 255 0 
-0.0628092 0.417798 0.204348 0 0 255 0 
-0.0260486 0.237112 0.484963 0 0 255 0 
0.237551 -0.177643 -0.398977 0 0 255 0 
0.214065 0.0665219 -0.168915 0 0 255 0 
-0.0321162 0.440706 0.0209125 0 0 255 0 
-0.0722661 0.290969 0.141154 0 0 255 0 
-0.0283455 0.289316 0.0516901 0 0 255 0 
0.000833242 0.44572 -0.00172006 0 0 255 0 
0.137734 0.373179 0.24249 0 0 255 0 
0.0722592 0.295496 0.118257 0 0 255 0 
-0.212806 0.11191 -0.297017 0 0 255 0 
-0.0574921 0.238838 0.485521 0 0 255 0 
-0.0449093 -0.390997 -0.342828 0 0 255 0 
-0.220832 0.221984 -0.0904523 0 0 255 0 
-0.06793 -0.320828 -0.340532 0 0 255 0 
-0.279814 0.187987 -0.47053 0 0 255 0 
0.162772 -0.219937 -0.291314 0 0 255 0 
0.0456417 0.369778 0.444938 0 0 255 0 
0.318989 0.0159531 -0.479013 0 0 255 0 
0.236194 -0.148792 -0.389635 0 0 255 0 
0.0953687 0.388162 0.0224934 0 0 255 0 
-0.0477008 0.44824 -0.0353621 0 0 255 0 
0.13651 0.274346 -0.112707 0 0 255 0 
-0.212601 0.33123 -0.113358 0 0 255 0 
-0.0851144 0.420387 -0.27824 0 0 255 0 
-0.19967 0.424957 0.113138 0 0 255 0 
0.222143 -0.153031 -0.361418 0 0 255 0 
0.135687 -0.227789 -0.0358052 0 0 255 0 
0.249018 -0.0222512 -0.387964 0 0 255 0 
-0.0796311 -0.257273 -0.181062 0 0 255 0 
0.232875 0.372382 0.0399749 0 0 255 0 
-0.243417 0.219309 -0.140854 0 0 255 0 
0.247913 0.343105 -0.107459 0 0 255 0 
-0.188473 0.419685 0.121762 0 0 255 0 
0.103284 -0.42155 -0.432989 0 0 255 0 
0.264569 0.336213 -0.0718786 0 0 255 0 
-0.17377 -0.299315 -0.367789 0 0 255 0 
-0.180987 0.279893 -0.0210175 0 0 255 0 
-0.205777 -0.0895826 -0.339538 0 0 255 0 
0.235315 0.267516 -0.191934 0 0 255 0 
0.0336848 0.376921 -0.216749 0 0 255 0 
0.221138 0.0738036 -0.326113 0 0 255 0 
0.164291 0.280344 -0.0348663 0 0 255 0 
0.0109372 -0.456506 -0.473829 0 0 255 0 
-0.163629 0.277655 -0.0442339 0 0 255 0 
-0.0383974 -0.373846 -0.381701 0 0 255 0 
-0.261024 0.355433 -0.0554673 0 0 255 0 
-0.313647 0.0567524 -0.461405 0 0 255 0 
-0.20426 0.0755816 -0.135017 0 0 255 0 
-0.00856822 -0.404255 -0.264667 0 0 255 0 
0.212228 0.277237 -0.423126 0 0 255 0 
0.0230216 0.438198 0.0664983 0 0 255 0 
0.155754 -0.164137 -0.0311643 0 0 255 0 
0.0279617 0.367791 -0.241204 0 0 255 0 
-0.170641 -0.16129 -0.142076 0 0 255 0 
0.238481 -0.0381708 -0.362232 0 0 255 0 
0.20638 -0.360191 -0.452276 0 0 255 0 
-0.148256 -0.270862 -0.200118 0 0 255 0 
0.179972 0.279215 0.00381179 0 0 255 0 
-0.149047 -0.277685 -0.299584 0 0 255 0 
0.180853 -0.176433 -0.316914 0 0 255 0 
0.0232187 0.284926 0.0619955 0 0 255 0 
0.207664 0.0915831 -0.272652 0 0 255 0 
-0.0430906 0.435986 0.035875 0 0 255 0 
-0.073886 0.425731 0.0121563 0 0 255 0 
0.0305172 -0.38526 -0.358628 0 0 255 0 
-0.280625 -0.225137 -0.431762 0 0 255 0 
0.234315 0.173468 -0.19843 0 0 255 0 
-0.100634 0.268176 -0.220606 0 0 255 0 
-0.321004 -0.0104743 -0.479005 0 0 255 0 
-0.311338 -0.00240115 -0.430523 0 0 255 0 
-0.188736 -0.0627538 -0.0690719 0 0 255 0 
-0.193405 0.0266288 -0.0917459 0 0 255 0 
-0.0536424 0.423618 -0.431699 0 0 255 0 
0.222312 -0.344178 -0.461364 0 0 255 0 
-0.0867053 0.425966 -0.477184 0 0 255 0 
-0.180148 -0.128098 -0.229111 0 0 255 0 
0.0585539 0.289891 0.104804 0 0 255 0 
-0.214437 0.068099 -0.201378 0 0 255 0 
-0.24183 0.0125785 -0.377989 0 0 255 0 
-0.0301511 0.422235 -0.113148 0 0 255 0 
0.162381 -0.394996 -0.443292 0 0 255 0 
-0.206198 0.381165 0.127677 0 0 255 0 
0.0524782 0.299487 0.0165911 0 0 255 0 
0.233196 0.168761 -0.164733 0 0 255 0 
-0.131446 -0.312533 -0.280774 0 0 255 0 
-0.210453 0.160962 -0.0901491 0 0 255 0 
0.140986 -0.410501 -0.444434 0 0 255 0 
0.100915 -0.313323 -0.210313 0 0 255 0 
0.302629 0.110929 -0.44719 0 0 255 0 
0.132726 0.250575 -0.362363 0 0 255 0 
0.055796 0.284363 0.204685 0 0 255 0 
-0.222758 0.384161 0.0919301 0 0 255 0 
-0.0691119 0.344853 -0.205502 0 0 255 0 
0.0237807 0.414325 -0.425609 0 0 255 0 
0.026352 0.368123 0.454659 0 0 255 0 
0.311754 0.0399963 -0.485664 0 0 255 0 
0.227985 -0.0616855 -0.36418 0 0 255 0 
0.175363 0.0500209 -0.0213199 0 0 255 0 
-0.119363 0.256296 -0.324096 0 0 255 0 
-0.217689 0.363362 -0.0894229 0 0 255 0 
-0.18446 0.377707 0.170108 0 0 255 0 
-0.148137 -0.327493 -0.383702 0 0 255 0 
-0.18129 -0.181017 -0.0831116 0 0 255 0 
0.150455 0.418496 0.159784 0 0 255 0 
0.319264 -0.0036619 -0.481127 0 0 255 0 
0.0687049 0.283528 0.469983 0 0 255 0 
0.219903 0.180659 -0.340213 0 0 255 0 
0.0654061 0.440949 -0.0331314 0 0 255 0 
-0.27549 -0.0174233 -0.411161 0 0 255 0 
0.182121 -0.103453 -0.18781 0 0 255 0 
0.24584 0.233481 -0.136354 0 0 255 0 
0.199618 0.269844 -0.192176 0 0 255 0 
0.213933 0.373847 0.0786152 0 0 255 0 
-0.0405204 0.424979 -0.13655 0 0 255 0 
0.316613 -0.095791 -0.487127 0 0 255 0 
-0.0349178 0.413689 -0.263476 0 0 255 0 
0.22556 0.186298 -0.40021 0 0 255 0 
-0.0827418 0.432968 -0.0337051 0 0 255 0 
0.251882 -0.0931447 -0.397409 0 0 255 0 
-0.267292 0.121512 -0.406851 0 0 255 0 
0.0831933 0.328378 0.050237 0 0 255 0 
-0.224095 0.115395 -0.180001 0 0 255 0 
-0.229646 0.149184 -0.135545 0 0 255 0 
0.204682 -0.146979 -0.336112 0 0 255 0 
0.0503033 0.436623 -0.0546357 0 0 255 0 
0.147303 -0.392739 -0.427012 0 0 255 0 
-0.0729761 0.414671 -0.179271 0 0 255 0 
-0.213504 0.318933 -0.136954 0 0 255 0 
-0.0566164 0.285184 -0.42688 0 0 255 0 
-0.00245875 0.39748 -0.41994 0 0 255 0 
0.0813524 0.344347 0.392506 0 0 255 0 
-0.130236 -0.327647 -0.367989 0 0 255 0 
-0.133733 0.262511 -0.301409 0 0 255 0 
-0.158423 -0.260904 -0.281092 0 0 255 0 
-0.0876896 0.311449 0.239742 0 0 255 0 
0.226916 0.375766 0.0630705 0 0 255 0 
-0.0932619 0.357539 -0.164993 0 0 255 0 
0.0228444 0.251605 0.457793 0 0 255 0 
0.203535 -0.195318 -0.3509 0 0 255 0 
-0.302915 0.0588438 -0.497979 0 0 255 0 
0.0920997 0.337755 -0.170772 0 0 255 0 
-0.157157 -0.247386 -0.0837127 0 0 255 0 
-0.0137354 0.23509 -0.0262209 0 0 255 0 
0.168531 -0.202769 -0.262216 0 0 255 0 
-0.260266 0.323843 -0.0828687 0 0 255 0 
-0.167535 -0.222262 -0.0526201 0 0 255 0 
-0.0988391 -0.254037 -0.0452205 0 0 255 0 
-0.21261 0.161858 -0.0523327 0 0 255 0 
0.00443705 0.443651 0.0252775 0 0 255 0 
-0.137472 0.357478 0.125443 0 0 255 0 
0.257893 0.249639 -0.462512 0 0 255 0 
0.0622892 0.281228 0.450248 0 0 255 0 
-0.184191 -0.0167954 -0.134631 0 0 255 0 
0.21865 0.0459269 -0.320834 0 0 255 0 
-0.198403 -0.0227469 -0.181769 0 0 255 0 
-0.0309568 0.24308 -0.383517 0 0 255 0 
-0.0626572 0.403152 0.412652 0 0 255 0 
-0.237317 0.286961 -0.482296 0 0 255 0 
0.216224 0.0786585 -0.198274 0 0 255 0 
-0.289526 -0.210024 -0.434972 0 0 255 0 
-0.0870568 -0.321721 -0.23266 0 0 255 0 
-0.325084 -0.0282064 -0.457392 0 0 255 0 
-0.204903 -0.0313847 -0.311394 0 0 255 0 
0.303213 0.100602 -0.472091 0 0 255 0 
0.0659696 0.391502 -0.156338 0 0 255 0 
0.214867 0.41984 0.067988 0 0 255 0 
-0.0414445 0.41686 -0.206289 0 0 255 0 
-0.3061 0.091467 -0.464794 0 0 255 0 
-0.0840936 0.416365 -0.101413 0 0 255 0 
