ply
format ascii 1.0
comment VCGLIB generated
element vertex 1321
property float x
property float y
property float z
property float nx
property float ny
property float nz
element face 0
property list uchar int vertex_indices
end_header
0.00743116 0.37284 -0.161658 0 0 0 
-0.218705 0.0868236 -0.2317 0 0 0 
-0.0234394 0.27659 0.26756 0 0 0 
-0.147589 0.384053 0.231414 0 0 0 
0.122539 0.252082 -0.409476 0 0 0 
0.133428 -0.223335 -0.13834 0 0 0 
0.148471 0.251657 -0.32879 0 0 0 
0.0334738 -0.214169 -0.0424755 0 0 0 
-0.0807119 0.417928 -0.093719 0 0 0 
-0.228163 0.137681 -0.182476 0 0 0 
-0.132014 0.265352 -0.271747 0 0 0 
0.139923 -0.24898 -0.197746 0 0 0 
0.204986 0.12179 -0.0788556 0 0 0 
-0.201058 -0.00512812 -0.176011 0 0 0 
0.270641 0.20208 -0.438525 0 0 0 
0.164086 -0.173002 -0.162636 0 0 0 
0.246625 -0.311228 -0.439726 0 0 0 
0.0235464 -0.400158 -0.326741 0 0 0 
0.193881 0.0408769 -0.0884042 0 0 0 
-0.223702 -0.187393 -0.363354 0 0 0 
-0.185554 -0.158932 -0.317503 0 0 0 
-0.247717 -0.314476 -0.447437 0 0 0 
0.186329 -0.0591381 -0.0887638 0 0 0 
0.0313995 0.405076 0.244719 0 0 0 
0.0507462 -0.292077 -0.0951031 0 0 0 
-0.00964997 0.24355 -0.402494 0 0 0 
0.0101467 0.24484 0.44454 0 0 0 
0.243698 0.0901096 -0.375154 0 0 0 
-0.182522 0.282234 -0.00738998 0 0 0 
-0.209988 0.0635068 -0.282348 0 0 0 
-0.121478 0.410406 0.191613 0 0 0 
0.0955508 -0.256678 -0.196939 0 0 0 
-0.158437 0.263063 -0.424586 0 0 0 
-0.205543 0.0997556 -0.264953 0 0 0 
-0.0901246 0.240095 0.46177 0 0 0 
-0.00892116 0.398137 -0.151133 0 0 0 
-0.0183151 0.260309 -0.241191 0 0 0 
0.216847 0.102755 -0.33661 0 0 0 
-0.033167 -0.395219 -0.414617 0 0 0 
-0.178 -0.176613 -0.104906 0 0 0 
-0.162015 -0.317113 -0.370428 0 0 0 
0.217346 0.186818 -0.331433 0 0 0 
-0.0565621 0.247359 0.0141632 0 0 0 
0.0308209 0.44211 0.0398999 0 0 0 
-0.130346 0.273553 0.439663 0 0 0 
-0.0170521 -0.386513 -0.408591 0 0 0 
-0.204872 -0.201585 -0.354426 0 0 0 
-0.189319 -0.0689011 -0.186175 0 0 0 
-0.314971 0.0223915 -0.429672 0 0 0 
0.0102716 0.220862 0.294371 0 0 0 
-0.0496453 -0.392039 -0.352724 0 0 0 
0.05641 0.379265 -0.322045 0 0 0 
-0.00800694 0.230214 0.383644 0 0 0 
-0.174525 -0.127782 -0.137172 0 0 0 
-0.209411 0.171607 -0.264419 0 0 0 
0.273047 0.11585 -0.415164 0 0 0 
0.10988 -0.315073 -0.334436 0 0 0 
-0.30491 -0.187984 -0.470871 0 0 0 
0.0487044 -0.364342 -0.405624 0 0 0 
0.0879395 -0.232394 -0.107101 0 0 0 
0.253422 -0.121293 -0.408366 0 0 0 
-0.0481064 0.447206 -0.0663497 0 0 0 
-0.213511 0.0282398 -0.317417 0 0 0 
-0.217432 -0.164395 -0.352093 0 0 0 
-0.0736241 0.404523 0.389582 0 0 0 
-0.223282 0.224316 -0.0138147 0 0 0 
-0.0645661 0.428759 -0.172272 0 0 0 
0.178999 -0.187357 -0.0891129 0 0 0 
0.105376 0.387699 0.259047 0 0 0 
-0.0805155 0.424641 -0.449739 0 0 0 
0.111717 0.278326 -0.00418882 0 0 0 
0.269128 0.365596 -0.0430297 0 0 0 
-0.194966 -0.0391036 -0.225563 0 0 0 
-0.322181 -0.101477 -0.466348 0 0 0 
0.198465 -0.194006 -0.342067 0 0 0 
-0.270413 -0.100996 -0.419796 0 0 0 
-0.230373 -0.0798432 -0.362052 0 0 0 
-0.139383 0.384698 0.239479 0 0 0 
0.0622737 0.443436 -0.0223931 0 0 0 
-0.211788 0.23436 -0.273086 0 0 0 
-0.218003 0.081331 -0.143032 0 0 0 
-0.253 0.210662 -0.427556 0 0 0 
0.219744 0.0937986 -0.180313 0 0 0 
-0.18831 -0.169279 -0.325632 0 0 0 
-0.134192 0.346038 0.363522 0 0 0 
0.163913 -0.28214 -0.250199 0 0 0 
-0.222832 0.166953 -0.342147 0 0 0 
-0.317872 0.0341207 -0.475967 0 0 0 
-0.145836 0.247803 0.0141653 0 0 0 
0.0970025 -0.232228 -0.177517 0 0 0 
0.180695 0.366299 -0.465297 0 0 0 
0.126565 -0.316344 -0.26655 0 0 0 
-0.0483595 0.437293 -0.457642 0 0 0 
0.171547 -0.172327 -0.180355 0 0 0 
-0.164026 -0.128323 -0.0328249 0 0 0 
0.206528 0.0222321 -0.311391 0 0 0 
0.0675225 0.295615 0.190194 0 0 0 
-0.056403 0.430552 -0.448162 0 0 0 
-0.217628 0.203294 -0.343089 0 0 0 
-0.173332 -0.170634 -0.300664 0 0 0 
-0.0276253 0.284138 0.242716 0 0 0 
0.0653187 0.277011 0.442402 0 0 0 
-0.0564213 0.231539 0.471225 0 0 0 
0.00666359 0.215203 0.30218 0 0 0 
0.235964 -0.0547589 -0.36328 0 0 0 
-0.212118 0.159248 -0.11195 0 0 0 
0.0519112 -0.251303 -0.070893 0 0 0 
-0.195169 -0.0390998 -0.216465 0 0 0 
0.238024 0.193768 -0.135163 0 0 0 
-0.184446 -0.0938987 -0.0954119 0 0 0 
0.137836 0.276349 0.013142 0 0 0 
0.0724965 0.392109 -0.159823 0 0 0 
-0.140536 0.261781 -0.228543 0 0 0 
-0.104258 0.315939 0.372732 0 0 0 
0.100924 -0.322637 -0.236131 0 0 0 
0.0922324 0.339803 0.118376 0 0 0 
0.276093 -0.262121 -0.463265 0 0 0 
0.191215 0.419281 0.0849193 0 0 0 
-0.149757 0.262299 -0.307246 0 0 0 
0.0793203 0.416834 0.182864 0 0 0 
-0.151469 0.338913 0.170517 0 0 0 
0.0996232 0.247464 0.0141637 0 0 0 
-0.0119296 0.238856 -0.00154073 0 0 0 
-0.176448 0.254578 -0.377315 0 0 0 
-0.122078 0.277071 0.0131351 0 0 0 
-0.320151 -0.0846342 -0.483838 0 0 0 
-0.0404063 0.439811 0.0399547 0 0 0 
-0.180434 -0.112379 -0.113912 0 0 0 
0.20144 -0.040952 -0.312215 0 0 0 
-0.0411292 0.403255 0.244979 0 0 0 
-0.126463 -0.339598 -0.390856 0 0 0 
-0.272422 -0.132156 -0.418549 0 0 0 
-0.300503 0.0378914 -0.421492 0 0 0 
-0.218649 -0.12844 -0.36083 0 0 0 
-0.0352053 0.224233 0.383169 0 0 0 
0.252166 0.250094 -0.43837 0 0 0 
-0.176257 0.428286 0.155523 0 0 0 
-0.0169538 0.401958 0.237096 0 0 0 
-0.0229077 0.220638 0.419607 0 0 0 
-0.0976034 0.405464 -0.00680317 0 0 0 
-0.0119395 0.247467 0.0141637 0 0 0 
0.281102 0.1834 -0.473864 0 0 0 
-0.0627739 -0.235712 -0.106912 0 0 0 
-0.205652 -0.252371 -0.375903 0 0 0 
-0.202758 0.258379 -0.281557 0 0 0 
-0.0587453 -0.356774 -0.399108 0 0 0 
-0.175804 0.264805 -0.271828 0 0 0 
-0.0832279 0.378122 0.330051 0 0 0 
0.0154882 -0.395077 -0.343971 0 0 0 
0.17931 -0.101769 -0.121073 0 0 0 
0.20833 0.148579 -0.0877162 0 0 0 
0.20532 0.142926 -0.230344 0 0 0 
-0.320491 -0.0761402 -0.483746 0 0 0 
-0.117141 -0.222541 -0.1384 0 0 0 
0.165864 0.260097 -0.416492 0 0 0 
-0.170498 0.402666 0.0937907 0 0 0 
-0.132385 0.259966 -0.425294 0 0 0 
-0.0880054 -0.437317 -0.432295 0 0 0 
0.0567119 0.377249 0.268858 0 0 0 
0.04748 0.405862 -0.0944085 0 0 0 
0.204476 0.0978788 -0.248493 0 0 0 
-0.124077 0.253002 -0.41808 0 0 0 
0.156229 -0.15925 -0.0330326 0 0 0 
0.198684 0.0892916 -0.119873 0 0 0 
0.207293 0.0346697 -0.221091 0 0 0 
-0.222031 0.197145 -0.381574 0 0 0 
-0.225763 0.408936 0.0199133 0 0 0 
-0.00105943 0.229453 0.402389 0 0 0 
-0.0502198 -0.368608 -0.384363 0 0 0 
-0.11384 0.273277 -0.124111 0 0 0 
-0.000822321 0.401251 0.428295 0 0 0 
-0.115604 -0.244075 -0.185222 0 0 0 
-0.208967 0.139211 -0.063544 0 0 0 
-0.207957 0.0816018 -0.255606 0 0 0 
-0.0558423 -0.447248 -0.449118 0 0 0 
0.0317502 -0.395058 -0.343974 0 0 0 
0.2598 -0.144983 -0.4158 0 0 0 
0.0401748 0.374607 -0.298346 0 0 0 
-0.213555 0.162565 -0.0408685 0 0 0 
0.112929 0.261835 -0.267234 0 0 0 
-0.288607 0.0985252 -0.424267 0 0 0 
-0.289406 0.16077 -0.453132 0 0 0 
-0.226018 0.175592 -0.359426 0 0 0 
0.176302 -0.175177 -0.112103 0 0 0 
-0.035389 0.25356 0.281134 0 0 0 
0.190852 -0.0344338 -0.273032 0 0 0 
0.11852 -0.306204 -0.208793 0 0 0 
0.126253 -0.324187 -0.34968 0 0 0 
-0.17854 -0.213179 -0.0865674 0 0 0 
0.160471 -0.317113 -0.370428 0 0 0 
0.260604 0.0717947 -0.389283 0 0 0 
0.112403 0.270441 -0.159133 0 0 0 
-0.205782 -0.234306 -0.366853 0 0 0 
-0.243408 0.22048 -0.110923 0 0 0 
-0.145585 0.237042 -0.0126794 0 0 0 
0.18959 -0.0317656 -0.0795154 0 0 0 
0.177638 -0.129306 -0.121176 0 0 0 
0.183572 0.258452 -0.41686 0 0 0 
-0.109949 -0.335653 -0.38334 0 0 0 
-0.220444 -0.247118 -0.404355 0 0 0 
-0.137393 0.288942 0.4092 0 0 0 
-0.255784 -0.198477 -0.42314 0 0 0 
-0.314781 -0.1392 -0.438223 0 0 0 
0.10927 -0.317976 -0.215913 0 0 0 
0.0482149 0.380091 -0.197555 0 0 0 
0.044532 0.284017 0.189255 0 0 0 
0.130804 0.259719 -0.416577 0 0 0 
-0.131266 0.384243 0.247695 0 0 0 
0.174925 -0.153699 -0.23547 0 0 0 
-0.131124 0.271489 -0.102087 0 0 0 
-0.0565752 0.429884 0.0640898 0 0 0 
0.23787 0.190344 -0.205176 0 0 0 
0.235235 0.161519 -0.403474 0 0 0 
-0.234046 0.28129 -0.430709 0 0 0 
-0.0895582 0.404632 -0.221948 0 0 0 
-0.147555 -0.383515 -0.425614 0 0 0 
-0.172018 -0.204709 -0.123617 0 0 0 
-0.195683 -0.0323701 -0.194641 0 0 0 
-0.156386 -0.286949 -0.24089 0 0 0 
-0.213335 0.192508 -0.303366 0 0 0 
-0.176421 -0.154345 -0.226149 0 0 0 
0.154445 -0.387168 -0.420922 0 0 0 
0.0255626 -0.254711 -0.0663397 0 0 0 
-0.162487 -0.315196 -0.359947 0 0 0 
0.226712 -0.203321 -0.396384 0 0 0 
-0.0854414 -0.324426 -0.21896 0 0 0 
0.101979 -0.297643 -0.306188 0 0 0 
0.150981 0.425217 0.147811 0 0 0 
-0.21132 0.0456267 -0.152539 0 0 0 
0.0479136 -0.391487 -0.207162 0 0 0 
0.29179 -0.225453 -0.46791 0 0 0 
-0.0248536 0.419095 -0.173285 0 0 0 
-0.182951 0.274484 -0.0758953 0 0 0 
0.31191 0.0664005 -0.462736 0 0 0 
-0.0727355 0.424571 0.0403175 0 0 0 
0.0326539 0.342548 0.320184 0 0 0 
-0.191229 0.0155446 -0.113243 0 0 0 
-0.0986835 0.38245 -0.422938 0 0 0 
0.247639 0.242221 -0.19529 0 0 0 
-0.149689 0.263132 -0.298349 0 0 0 
-0.142685 -0.233013 -0.107066 0 0 0 
0.212425 0.0558208 -0.296903 0 0 0 
0.103578 0.339982 0.170593 0 0 0 
-0.194697 0.25132 -0.400829 0 0 0 
-0.259529 -0.0753132 -0.404748 0 0 0 
-0.0574872 0.403271 0.357487 0 0 0 
0.202756 -0.0318966 -0.312002 0 0 0 
-0.132757 -0.251141 -0.048879 0 0 0 
0.138179 -0.27187 -0.204032 0 0 0 
0.0156765 -0.371187 -0.156056 0 0 0 
0.00729627 -0.404078 -0.26167 0 0 0 
0.112221 0.400848 0.237249 0 0 0 
-0.176179 -0.0450273 -0.0325934 0 0 0 
0.080575 0.390097 -0.2483 0 0 0 
-0.225277 0.353501 -0.0319915 0 0 0 
-0.30557 -0.179366 -0.479247 0 0 0 
0.20635 -0.085925 -0.329447 0 0 0 
-0.128185 -0.315373 -0.275187 0 0 0 
0.224847 -0.185675 -0.387849 0 0 0 
-0.0658638 0.389142 0.34636 0 0 0 
-0.179365 -0.0910196 -0.277718 0 0 0 
0.0681446 0.317122 0.0489594 0 0 0 
0.061226 -0.241823 -0.0281157 0 0 0 
0.0314943 0.40677 0.248063 0 0 0 
0.1999 0.339335 -0.441976 0 0 0 
-0.234473 -0.0118485 -0.357816 0 0 0 
-0.226458 0.280088 -0.0466796 0 0 0 
0.0249961 0.229879 0.32374 0 0 0 
0.214639 0.0671446 -0.180799 0 0 0 
-0.272623 0.18642 -0.427997 0 0 0 
0.185904 -0.0285382 -0.111554 0 0 0 
0.258342 -0.033308 -0.407288 0 0 0 
-0.0169626 -0.395915 -0.414448 0 0 0 
-0.0181488 0.273632 -0.423857 0 0 0 
-0.202111 0.33396 -0.434945 0 0 0 
-0.186827 -0.0390994 -0.104401 0 0 0 
-0.234552 0.284454 -0.178733 0 0 0 
0.123345 -0.358359 -0.415294 0 0 0 
-0.103392 -0.300031 -0.31433 0 0 0 
-0.0492791 -0.398169 -0.297039 0 0 0 
-0.0638308 0.448302 -0.0426745 0 0 0 
-0.208655 0.126624 -0.282544 0 0 0 
-0.204111 0.0218228 -0.322923 0 0 0 
0.173334 0.270734 -0.159108 0 0 0 
-0.0184418 0.243349 -0.321473 0 0 0 
0.243517 -0.0159177 -0.384026 0 0 0 
-0.0120705 0.267468 0.255235 0 0 0 
0.316241 -0.00168477 -0.436152 0 0 0 
0.199431 0.346728 -0.462173 0 0 0 
0.214991 -0.0395221 -0.336836 0 0 0 
-0.208197 0.280707 -0.422207 0 0 0 
0.218942 0.195448 -0.348696 0 0 0 
0.162025 -0.393365 -0.427527 0 0 0 
0.204821 0.124922 -0.248447 0 0 0 
0.0706295 -0.436715 -0.424519 0 0 0 
-0.11346 0.410007 0.199704 0 0 0 
-0.214732 0.221734 -0.214229 0 0 0 
-0.16981 -0.164878 -0.146704 0 0 0 
0.181965 -0.351687 -0.425189 0 0 0 
0.225599 0.0163181 -0.34746 0 0 0 
-0.110825 -0.317976 -0.215913 0 0 0 
0.180279 -0.187235 -0.0799145 0 0 0 
-0.165466 -0.282139 -0.241531 0 0 0 
0.194058 -0.0342131 -0.160067 0 0 0 
-0.224293 0.371722 0.0563736 0 0 0 
-0.0945782 0.262665 0.414905 0 0 0 
-0.186525 -0.114427 -0.0642921 0 0 0 
-0.0957892 -0.436588 -0.467848 0 0 0 
0.274184 -0.250423 -0.484366 0 0 0 
-0.0690493 0.287323 0.127255 0 0 0 
-0.271061 0.125584 -0.419648 0 0 0 
0.200733 -0.00464599 -0.200204 0 0 0 
-0.098294 0.397068 0.166471 0 0 0 
0.242893 0.216336 -0.186948 0 0 0 
-0.167773 0.253398 -0.386345 0 0 0 
-0.132268 0.261796 -0.30733 0 0 0 
-0.0348911 0.285429 0.257202 0 0 0 
0.021541 0.243283 0.423705 0 0 0 
0.0385629 -0.45071 -0.436654 0 0 0 
-0.225278 0.0952821 -0.359567 0 0 0 
-0.120434 -0.427427 -0.442863 0 0 0 
0.040001 0.388591 -0.261715 0 0 0 
0.0376112 0.270702 0.166497 0 0 0 
-0.0967639 0.419308 -0.451161 0 0 0 
-0.172144 -0.25668 -0.269566 0 0 0 
0.00795936 0.258864 -0.250147 0 0 0 
-0.0857025 -0.315642 -0.275146 0 0 0 
0.208027 -0.208648 -0.368734 0 0 0 
0.196262 -0.0433921 -0.281321 0 0 0 
0.192136 -0.0500509 -0.201104 0 0 0 
-0.220359 0.0935645 -0.131116 0 0 0 
-0.199953 0.423467 0.110974 0 0 0 
-0.209228 0.039949 -0.211302 0 0 0 
0.236941 -0.122392 -0.394241 0 0 0 
-0.191777 0.425306 0.134722 0 0 0 
0.0960454 0.40068 -0.426494 0 0 0 
0.0320459 0.377809 0.276985 0 0 0 
0.246828 0.215549 -0.421999 0 0 0 
-0.0939993 -0.32268 -0.236125 0 0 0 
0.324591 -0.0439361 -0.451025 0 0 0 
-0.00961759 -0.246672 -0.0280465 0 0 0 
0.103697 0.270392 -0.159137 0 0 0 
0.210517 -0.259056 -0.40877 0 0 0 
0.0622816 0.443229 -0.0302824 0 0 0 
0.0726794 0.387656 -0.387943 0 0 0 
-0.210292 0.0724992 -0.282303 0 0 0 
0.292626 0.11547 -0.428736 0 0 0 
0.208338 0.209252 -0.00154073 0 0 0 
-0.0564493 0.43316 -0.163862 0 0 0 
0.199434 0.24833 -0.41474 0 0 0 
-0.088883 0.421217 -0.0753466 0 0 0 
-0.22669 -0.17817 -0.362771 0 0 0 
-0.202566 0.260132 -0.272518 0 0 0 
-0.166523 -0.189513 -0.188346 0 0 0 
-0.201524 -0.00280145 -0.242871 0 0 0 
0.152442 -0.406038 -0.468368 0 0 0 
-0.220661 0.206722 -0.0227929 0 0 0 
-0.227514 0.262775 -0.0718464 0 0 0 
0.0154509 -0.391695 -0.207137 0 0 0 
-0.0644973 0.423581 -0.281756 0 0 0 
-0.139385 0.33028 0.193 0 0 0 
0.00731744 -0.402721 -0.21736 0 0 0 
-0.0347504 0.275637 0.115321 0 0 0 
0.274856 0.0819061 -0.406906 0 0 0 
-0.226732 0.256323 -0.00138508 0 0 0 
0.0396808 -0.396716 -0.305386 0 0 0 
-0.239768 0.195607 -0.159098 0 0 0 
-0.226399 0.241797 -0.0227109 0 0 0 
0.183845 -0.104811 -0.0888821 0 0 0 
-0.000817133 0.376147 0.277255 0 0 0 
-0.0805187 0.428724 -0.0750248 0 0 0 
-0.055883 0.450401 -0.0504924 0 0 0 
0.251383 0.210798 -0.427526 0 0 0 
0.155804 0.272085 -0.141591 0 0 0 
0.218224 0.0910675 -0.177021 0 0 0 
-0.239714 0.290529 -0.075733 0 0 0 
-0.0137819 0.279391 0.239878 0 0 0 
-0.244547 0.218344 -0.109943 0 0 0 
-0.0099942 0.213625 0.349325 0 0 0 
-0.220635 0.218958 -0.0810617 0 0 0 
0.0634512 0.409302 0.127985 0 0 0 
-0.2365 0.142363 -0.369733 0 0 0 
-0.177319 -0.185834 -0.104945 0 0 0 
0.267505 0.22509 -0.465432 0 0 0 
0.121343 0.263546 -0.20215 0 0 0 
-0.256644 -0.246411 -0.420535 0 0 0 
0.224799 0.12031 -0.179832 0 0 0 
-0.0691401 0.297188 0.201714 0 0 0 
0.194856 0.180374 -0.00154073 0 0 0 
-0.0348464 0.285703 0.0770335 0 0 0 
-0.0479038 -0.449731 -0.464156 0 0 0 
-0.186783 -0.114411 -0.073398 0 0 0 
0.22193 0.225711 -0.0299468 0 0 0 
-0.0791401 0.248872 0.435909 0 0 0 
0.226432 -0.335585 -0.433694 0 0 0 
-0.197659 0.0461117 -0.041247 0 0 0 
-0.244464 -0.164357 -0.408048 0 0 0 
0.21268 0.165875 -0.310395 0 0 0 
-0.199258 -0.0596269 -0.305645 0 0 0 
-0.0568845 0.419611 -0.380791 0 0 0 
-0.0375688 0.27294 0.280833 0 0 0 
-0.13833 0.399795 -0.464454 0 0 0 
-0.253685 -0.0700483 -0.392684 0 0 0 
0.148364 -0.283488 -0.320808 0 0 0 
-0.205935 -0.0841708 -0.345205 0 0 0 
-0.238166 -0.191536 -0.409427 0 0 0 
0.108557 -0.33318 -0.375472 0 0 0 
-0.0509009 0.343969 0.476137 0 0 0 
0.189826 0.1717 0.00141865 0 0 0 
-0.03299 0.409245 -0.213286 0 0 0 
-0.275873 -0.255138 -0.430477 0 0 0 
0.194735 0.0385081 -0.0484724 0 0 0 
0.283737 -0.22973 -0.430853 0 0 0 
-0.0336144 -0.371731 -0.4039 0 0 0 
-0.286035 -0.245093 -0.453983 0 0 0 
-0.245704 -0.123356 -0.394394 0 0 0 
-0.100963 0.235475 -0.0238031 0 0 0 
-0.25277 0.261367 -0.127034 0 0 0 
0.251118 0.188638 -0.421019 0 0 0 
-0.0492346 -0.406349 -0.241122 0 0 0 
-0.0979759 -0.243262 -0.0314324 0 0 0 
0.19023 0.272388 -0.102036 0 0 0 
-0.153206 0.411899 0.119766 0 0 0 
-0.0759005 -0.346281 -0.372665 0 0 0 
-0.0321324 0.221279 0.325536 0 0 0 
0.314964 0.0322997 -0.444959 0 0 0 
0.208007 0.12799 -0.288592 0 0 0 
0.181803 0.273107 -0.132817 0 0 0 
0.0781876 -0.256182 -0.0399606 0 0 0 
0.101622 -0.303894 -0.322183 0 0 0 
-0.101968 -0.331647 -0.36509 0 0 0 
0.207327 0.16407 -0.26167 0 0 0 
-0.226274 0.122169 -0.21291 0 0 0 
-0.200049 0.283484 -0.0552614 0 0 0 
0.202351 0.00438635 -0.209066 0 0 0 
-0.000785394 0.270841 0.115092 0 0 0 
0.118952 -0.299942 -0.314346 0 0 0 
-0.263094 -0.145169 -0.421469 0 0 0 
-0.229541 -0.011872 -0.349844 0 0 0 
-0.0483785 0.433381 -0.455338 0 0 0 
0.251049 -0.272468 -0.427061 0 0 0 
-0.160129 -0.236447 -0.098017 0 0 0 
0.0738431 0.361138 0.382906 0 0 0 
0.0861783 -0.439518 -0.459121 0 0 0 
0.0812934 0.371711 -0.214932 0 0 0 
-0.252362 0.267986 -0.197776 0 0 0 
-0.106591 0.37358 0.161237 0 0 0 
-0.0761415 -0.340657 -0.365495 0 0 0 
0.0105217 0.275674 0.0993117 0 0 0 
0.265271 0.225367 -0.448531 0 0 0 
-0.0199698 0.221433 0.416082 0 0 0 
-0.293002 -0.20112 -0.426398 0 0 0 
-0.148545 0.270934 -0.110809 0 0 0 
0.0150924 0.42616 0.110795 0 0 0 
-0.206688 -0.192375 -0.354088 0 0 0 
0.125628 -0.329673 -0.367797 0 0 0 
-0.208776 0.141515 -0.103147 0 0 0 
-0.239564 0.198908 -0.20798 0 0 0 
-0.0171648 0.386618 0.267385 0 0 0 
0.0696571 -0.249782 -0.0313082 0 0 0 
0.0227858 -0.45056 -0.448219 0 0 0 
0.00744906 -0.371192 -0.156055 0 0 0 
-0.165979 0.273607 -0.124089 0 0 0 
-0.156639 0.281351 -0.0247086 0 0 0 
-0.264967 0.0789988 -0.390266 0 0 0 
-0.088964 0.412496 -0.299685 0 0 0 
0.125889 0.319886 0.220005 0 0 0 
-0.132647 -0.252679 -0.0576261 0 0 0 
-0.320198 -0.118549 -0.458388 0 0 0 
0.121514 0.260981 -0.237379 0 0 0 
-0.170684 -0.0819229 -0.0326981 0 0 0 
-0.0813872 -0.221382 -0.138489 0 0 0 
-0.208175 0.424668 0.100614 0 0 0 
0.267977 0.355087 -0.0545146 0 0 0 
-0.175856 -0.204306 -0.105028 0 0 0 
-0.0254826 0.373347 0.314611 0 0 0 
0.0547383 0.435962 -0.45801 0 0 0 
0.308893 -0.0731651 -0.424863 0 0 0 
0.186434 -0.0104737 -0.250898 0 0 0 
-0.000817133 0.392626 0.258296 0 0 0 
-0.121677 0.406406 -0.446543 0 0 0 
-0.180493 -0.115119 -0.299539 0 0 0 
-0.298645 -0.174757 -0.425055 0 0 0 
0.0476663 0.402668 -0.131642 0 0 0 
0.0997361 0.250098 0.0253451 0 0 0 
0.075655 -0.315738 -0.275131 0 0 0 
0.101143 -0.319008 -0.342198 0 0 0 
0.256159 -0.104185 -0.402149 0 0 0 
-0.0608127 -0.264931 -0.121317 0 0 0 
-0.196235 -0.159492 -0.324273 0 0 0 
-0.0602469 -0.27472 -0.101918 0 0 0 
-0.0724704 0.423783 -0.0774593 0 0 0 
-0.230271 0.157372 -0.367523 0 0 0 
0.211742 0.241618 0.0104062 0 0 0 
-0.114359 0.261421 -0.228587 0 0 0 
-0.16267 -0.137643 -0.0328507 0 0 0 
-0.182521 -0.103125 -0.104648 0 0 0 
0.267461 0.21763 -0.445867 0 0 0 
0.0807161 0.346875 0.38909 0 0 0 
0.211302 0.378969 0.0383549 0 0 0 
0.235131 0.0461363 -0.376867 0 0 0 
0.221518 0.141532 -0.339277 0 0 0 
-0.0626086 -0.240671 -0.0977958 0 0 0 
0.0597891 0.278379 0.459305 0 0 0 
-0.0169183 -0.404101 -0.277809 0 0 0 
0.308182 -0.172253 -0.463695 0 0 0 
0.189911 0.282141 -0.0726379 0 0 0 
0.0227787 0.448211 -0.00659961 0 0 0 
-0.191532 -0.0539132 -0.163232 0 0 0 
-0.188325 0.35954 0.15448 0 0 0 
0.148675 -0.249494 -0.197692 0 0 0 
0.0888988 -0.215732 -0.152185 0 0 0 
0.226334 0.129126 -0.20644 0 0 0 
-0.223735 0.0864243 -0.341984 0 0 0 
-0.133591 0.352537 -0.422045 0 0 0 
0.0810645 0.383218 -0.160669 0 0 0 
-0.16791 0.255149 -0.408804 0 0 0 
0.0243114 -0.345889 -0.120639 0 0 0 
-0.231496 0.155246 -0.182159 0 0 0 
0.192055 0.0227577 -0.0884911 0 0 0 
-0.0408049 0.418979 -0.244036 0 0 0 
0.145318 0.394049 -0.457896 0 0 0 
0.113371 0.251285 -0.311292 0 0 0 
0.218014 0.204503 -0.366784 0 0 0 
-0.127787 0.329364 0.181381 0 0 0 
-0.174252 -0.109452 -0.146365 0 0 0 
-0.200017 0.422926 0.118979 0 0 0 
-0.000783258 0.288623 0.0597688 0 0 0 
-0.203659 0.249966 -0.418759 0 0 0 
-0.0170932 0.394138 0.258066 0 0 0 
0.174751 0.355593 0.119128 0 0 0 
0.00707447 -0.452194 -0.463464 0 0 0 
-0.16479 -0.283024 -0.334591 0 0 0 
-0.120027 -0.30705 -0.33013 0 0 0 
-0.14941 0.263311 -0.249533 0 0 0 
-0.119687 0.31211 -0.423371 0 0 0 
-0.136647 0.285316 0.434351 0 0 0 
-0.221999 0.086507 -0.333351 0 0 0 
-0.225604 -0.0118907 -0.332716 0 0 0 
-0.170231 -0.319954 -0.378306 0 0 0 
0.176377 -0.147862 -0.224771 0 0 0 
0.22561 -0.0372115 -0.338536 0 0 0 
-0.0968884 -0.420649 -0.420641 0 0 0 
0.247833 0.245635 -0.134462 0 0 0 
0.0473585 0.410285 0.227917 0 0 0 
-0.0651639 0.405845 -0.425191 0 0 0 
-0.168723 -0.214413 -0.247089 0 0 0 
0.00724487 0.403572 0.220751 0 0 0 
0.176895 -0.0893015 -0.0488972 0 0 0 
0.00797185 0.256241 -0.268059 0 0 0 
0.112183 0.27069 -0.110824 0 0 0 
0.122786 0.245091 -0.388085 0 0 0 
0.0575574 -0.34888 -0.141407 0 0 0 
-0.182736 -0.105687 -0.177669 0 0 0 
0.0480101 -0.395126 -0.343961 0 0 0 
0.0715863 0.406736 -0.078271 0 0 0 
0.102565 0.313078 0.230872 0 0 0 
-0.161506 0.319201 -0.421683 0 0 0 
-0.0791522 0.255714 0.0365941 0 0 0 
-0.205557 0.12371 -0.094306 0 0 0 
0.200469 0.0709649 -0.239986 0 0 0 
0.160481 -0.316994 -0.361966 0 0 0 
-0.20565 0.154218 -0.0139827 0 0 0 
0.180791 0.365378 -0.473796 0 0 0 
-0.113626 0.27346 -0.0759392 0 0 0 
-0.0091042 -0.354003 -0.128384 0 0 0 
0.201024 -0.0861533 -0.321321 0 0 0 
0.147764 0.243793 0.0200302 0 0 0 
-0.0361998 0.24041 -0.389066 0 0 0 
-0.243651 -0.026212 -0.359459 0 0 0 
0.257089 0.362702 -0.0429745 0 0 0 
0.232105 0.409456 0.0118743 0 0 0 
0.172827 -0.129627 -0.13982 0 0 0 
0.220119 0.198605 -0.397765 0 0 0 
0.0794312 0.311332 0.180007 0 0 0 
0.0644529 0.389458 -0.17639 0 0 0 
-0.188487 -0.0275652 -0.153256 0 0 0 
-0.181998 0.283442 -0.421568 0 0 0 
0.0156547 0.37017 0.290476 0 0 0 
-0.0487828 0.416249 -0.299006 0 0 0 
0.193991 0.00458576 -0.0611826 0 0 0 
-0.0569295 0.415009 -0.352484 0 0 0 
0.0154395 -0.400194 -0.326734 0 0 0 
-0.174762 -0.127926 -0.287548 0 0 0 
-0.308372 0.0395568 -0.422739 0 0 0 
0.216192 0.414997 0.0325083 0 0 0 
-0.219933 -0.0141545 -0.320211 0 0 0 
-0.0854445 -0.324462 -0.349627 0 0 0 
-0.188845 -0.0723589 -0.294573 0 0 0 
-0.23648 0.178196 -0.15938 0 0 0 
-0.103933 -0.432948 -0.468871 0 0 0 
-0.161467 -0.323177 -0.377615 0 0 0 
-0.300354 0.0911897 -0.424648 0 0 0 
-0.216178 0.0486315 -0.302905 0 0 0 
-0.165547 -0.220697 -0.288908 0 0 0 
0.200205 0.266904 -0.423708 0 0 0 
0.214595 0.18365 -0.328033 0 0 0 
-0.272728 -0.0399266 -0.419267 0 0 0 
-0.210882 0.144794 -0.0409322 0 0 0 
-0.000773492 -0.40025 -0.326724 0 0 0 
0.178594 -0.233442 -0.352496 0 0 0 
-0.0485952 0.427117 0.0845461 0 0 0 
0.0789477 0.421161 0.00378699 0 0 0 
-0.105416 0.346255 0.349053 0 0 0 
0.10126 -0.313486 -0.29248 0 0 0 
-0.262483 -0.153973 -0.421609 0 0 0 
-0.0349156 0.293907 0.0598946 0 0 0 
0.0150315 0.43593 0.0841265 0 0 0 
-0.00884679 -0.404105 -0.277809 0 0 0 
-0.0349307 0.294965 0.0485373 0 0 0 
-0.217391 0.102415 -0.302709 0 0 0 
-0.196625 0.058484 -0.0911584 0 0 0 
0.118362 -0.308781 -0.295769 0 0 0 
0.21495 0.102863 -0.327972 0 0 0 
0.129081 0.280894 -0.0247151 0 0 0 
0.203768 0.125152 -0.110533 0 0 0 
-0.000788446 0.231777 0.284662 0 0 0 
-0.107746 -0.230308 -0.119981 0 0 0 
-0.0648467 0.420923 -0.380498 0 0 0 
0.0701717 -0.233018 -0.107066 0 0 0 
0.111852 0.28274 -0.0466165 0 0 0 
-0.0325001 0.439139 0.0637373 0 0 0 
0.207233 0.282284 -0.0726324 0 0 0 
-0.16637 0.272561 -0.171208 0 0 0 
0.216613 0.269458 -0.201502 0 0 0 
-0.14946 0.262694 -0.258362 0 0 0 
0.161274 -0.39797 -0.478698 0 0 0 
0.16681 0.420013 0.119187 0 0 0 
0.13705 0.393351 0.230174 0 0 0 
0.219696 0.0938011 -0.189267 0 0 0 
-0.184653 -0.0964529 -0.177495 0 0 0 
0.219128 0.236752 -0.419379 0 0 0 
0.0637419 0.404817 -0.115341 0 0 0 
-0.251273 0.0883931 -0.375586 0 0 0 
0.0558397 -0.296386 -0.0949776 0 0 0 
0.230088 -0.23463 -0.414348 0 0 0 
0.180289 -0.171376 -0.0670911 0 0 0 
0.0538389 -0.277193 -0.0853334 0 0 0 
-0.0272331 0.245374 -0.312306 0 0 0 
-0.191277 0.281258 -0.0333676 0 0 0 
-0.00885168 -0.406549 -0.241094 0 0 0 
0.031441 0.402884 -0.0945786 0 0 0 
0.303942 0.100898 -0.456236 0 0 0 
0.214626 0.181711 -0.0479988 0 0 0 
0.0481882 -0.381876 -0.183823 0 0 0 
0.163825 -0.0346293 -0.0307768 0 0 0 
-0.0504379 0.225845 0.336736 0 0 0 
0.131825 -0.242307 -0.040291 0 0 0 
0.201516 0.248358 -0.329387 0 0 0 
-0.166781 0.264555 -0.231889 0 0 0 
0.0217918 0.275504 0.177277 0 0 0 
-0.198239 -0.0209214 -0.234234 0 0 0 
-0.017142 -0.380446 -0.365344 0 0 0 
0.190897 0.422064 0.0927747 0 0 0 
0.313131 0.0526247 -0.47398 0 0 0 
0.0558496 -0.400365 -0.278414 0 0 0 
-0.24439 0.224923 -0.207451 0 0 0 
-0.224798 0.116774 -0.142514 0 0 0 
-0.103913 -0.433268 -0.460847 0 0 0 
0.00713641 0.42683 0.11075 0 0 0 
-0.0250195 0.409328 0.356217 0 0 0 
0.0791412 0.296377 0.433313 0 0 0 
0.205544 0.16996 -0.24835 0 0 0 
0.0897168 0.36743 -0.418429 0 0 0 
-0.169723 -0.179997 -0.188042 0 0 0 
0.318251 0.00679569 -0.444145 0 0 0 
0.146759 0.273039 -0.0846376 0 0 0 
-0.0648731 0.417925 0.109007 0 0 0 
-0.146882 0.394408 -0.465917 0 0 0 
0.206951 0.278169 -0.00418882 0 0 0 
-0.000780511 -0.272581 -0.0874437 0 0 0 
-0.184771 -0.0448227 -0.0415538 0 0 0 
0.248262 0.388367 -0.0371185 0 0 0 
0.164031 0.274152 0.0131629 0 0 0 
-0.0406319 0.426518 -0.129825 0 0 0 
0.226842 -0.0371881 -0.347229 0 0 0 
0.158074 -0.0960125 -0.0282034 0 0 0 
0.17487 -0.154302 -0.226153 0 0 0 
-0.0400519 0.451169 -0.0222826 0 0 0 
-0.0644706 0.431027 -0.255249 0 0 0 
-0.0693707 0.246559 0.439414 0 0 0 
0.235567 -0.330183 -0.451913 0 0 0 
0.216023 0.190545 -0.0479656 0 0 0 
0.0939295 -0.287631 -0.202306 0 0 0 
-0.0777782 -0.299078 -0.314498 0 0 0 
0.241611 0.218227 -0.121833 0 0 0 
0.0662192 0.24973 0.0253416 0 0 0 
0.126997 -0.307026 -0.321616 0 0 0 
-0.0497431 -0.381876 -0.183823 0 0 0 
0.0644882 0.381676 -0.406808 0 0 0 
-0.0565272 0.286867 0.302233 0 0 0 
0.0395843 -0.40401 -0.277824 0 0 0 
0.0673282 0.288814 0.166939 0 0 0 
-0.0166275 0.439741 -0.456966 0 0 0 
0.00732152 0.388856 -0.0872514 0 0 0 
-0.000813166 0.428685 0.102686 0 0 0 
0.0646246 0.378254 -0.197765 0 0 0 
-0.0167429 0.423624 0.126894 0 0 0 
0.309798 0.0664809 -0.446238 0 0 0 
-0.00869192 0.440967 0.00369268 0 0 0 
0.101332 -0.308966 -0.295738 0 0 0 
-0.188606 -0.0596629 -0.0551168 0 0 0 
-0.0168967 0.412877 -0.157845 0 0 0 
-0.228513 -0.169081 -0.362415 0 0 0 
-0.0791092 0.247946 0.424549 0 0 0 
-0.199803 -0.138749 -0.337262 0 0 0 
-0.202661 0.103506 -0.081832 0 0 0 
-0.190589 -0.0597564 -0.204247 0 0 0 
-0.212409 -0.0756794 -0.344239 0 0 0 
0.24612 0.233599 -0.186625 0 0 0 
0.0971769 0.388114 0.159157 0 0 0 
0.166191 0.235555 -0.0126723 0 0 0 
0.206266 0.0797577 -0.248254 0 0 0 
-0.198472 0.0457729 -0.26593 0 0 0 
-0.119487 0.323285 0.382722 0 0 0 
0.0445436 0.284627 0.200637 0 0 0 
0.0345466 0.239838 -0.339765 0 0 0 
0.120826 0.271428 -0.10209 0 0 0 
-0.245108 0.263484 -0.202157 0 0 0 
-0.090498 0.383428 -0.197174 0 0 0 
-0.219786 0.090212 -0.160811 0 0 0 
-0.198102 0.0367211 -0.275042 0 0 0 
0.00708038 0.445541 0.0398182 0 0 0 
-0.193658 -0.0414905 -0.213008 0 0 0 
-0.0335124 -0.380415 -0.36535 0 0 0 
0.209759 0.0828882 -0.261334 0 0 0 
0.226961 -0.238954 -0.414162 0 0 0 
0.125849 -0.329843 -0.365459 0 0 0 
-0.21923 -0.2416 -0.391107 0 0 0 
-0.277809 -0.0931444 -0.417355 0 0 0 
-0.32599 -0.0538303 -0.443899 0 0 0 
-0.139279 0.28194 -0.00739138 0 0 0 
0.00741345 0.373086 -0.133896 0 0 0 
0.0551828 0.419739 0.174547 0 0 0 
0.237973 0.193773 -0.126304 0 0 0 
0.249353 0.25424 -0.107928 0 0 0 
0.0154963 0.383261 0.449154 0 0 0 
-0.174895 -0.164601 -0.278357 0 0 0 
-0.0167048 0.427614 0.102752 0 0 0 
-0.216031 0.0690005 -0.21408 0 0 0 
-0.196731 -0.220572 -0.365005 0 0 0 
0.224792 0.280076 -0.429374 0 0 0 
-0.244802 -0.0460013 -0.368849 0 0 0 
-0.00757362 0.266695 0.190219 0 0 0 
-0.0120754 0.275521 0.177278 0 0 0 
0.0957664 0.409289 -0.0228809 0 0 0 
0.0786503 0.430712 -0.00668294 0 0 0 
-0.202332 0.256892 -0.323228 0 0 0 
-0.221147 0.318979 -0.477915 0 0 0 
-0.185358 0.253309 -0.386364 0 0 0 
-0.176261 0.256542 -0.350594 0 0 0 
-0.0255518 -0.364815 -0.148374 0 0 0 
0.298673 0.0893456 -0.427297 0 0 0 
0.234393 0.172949 -0.214437 0 0 0 
0.210972 -0.17236 -0.350177 0 0 0 
0.0316029 0.397729 -0.132018 0 0 0 
0.142874 -0.324816 -0.368814 0 0 0 
-0.314551 0.0564218 -0.446786 0 0 0 
-0.228729 0.259327 -0.0226776 0 0 0 
-0.210937 -0.260335 -0.391082 0 0 0 
0.19693 -0.0227623 -0.218718 0 0 0 
0.0870375 -0.254596 -0.0575621 0 0 0 
0.04637 -0.44955 -0.45635 0 0 0 
-0.049358 0.404189 0.248444 0 0 0 
0.125161 -0.336211 -0.383218 0 0 0 
-0.172867 -0.250683 -0.228194 0 0 0 
-0.150403 0.254125 -0.409028 0 0 0 
-0.0486833 0.426482 -0.279882 0 0 0 
0.0679668 0.307661 0.0663069 0 0 0 
-0.177885 -0.149312 -0.245911 0 0 0 
-0.116892 -0.226561 -0.129162 0 0 0 
-0.19938 -0.0174708 -0.16256 0 0 0 
-0.211433 0.21641 -0.282134 0 0 0 
-0.0485135 0.432693 -0.155958 0 0 0 
-0.204163 0.0129502 -0.202825 0 0 0 
-0.227634 0.262758 -0.0629218 0 0 0 
-0.10511 0.413669 -0.44464 0 0 0 
-0.047968 0.284449 0.0954673 0 0 0 
-0.190891 -0.0597463 -0.186026 0 0 0 
0.101033 -0.317467 -0.2579 0 0 0 
-0.203065 -0.243679 -0.367383 0 0 0 
-0.0925438 0.310134 0.230592 0 0 0 
-0.113813 0.40798 0.173503 0 0 0 
-0.232199 0.363935 -0.0235288 0 0 0 
-0.207103 0.132624 -0.103243 0 0 0 
-0.21164 0.138701 -0.294644 0 0 0 
-0.180124 -0.127568 -0.259317 0 0 0 
0.250213 -0.103898 -0.400264 0 0 0 
-0.113503 0.409363 0.191732 0 0 0 
0.179657 -0.205575 -0.0708008 0 0 0 
0.16867 -0.108238 -0.162243 0 0 0 
-0.11516 -0.251133 -0.066476 0 0 0 
-0.128077 -0.32031 -0.34195 0 0 0 
-0.00886991 -0.402721 -0.21736 0 0 0 
0.18805 -0.10491 -0.314383 0 0 0 
-0.12966 0.273648 0.449203 0 0 0 
-0.183976 -0.270531 -0.36888 0 0 0 
0.213095 0.175137 -0.0785081 0 0 0 
0.0671201 -0.316858 -0.266474 0 0 0 
-0.0864316 -0.297031 -0.306293 0 0 0 
0.0911051 0.313698 0.242418 0 0 0 
0.192423 -0.00716504 -0.281887 0 0 0 
0.212824 0.301014 -0.426013 0 0 0 
0.0591575 -0.26349 -0.138225 0 0 0 
-0.16744 0.253807 -0.328401 0 0 0 
0.0951386 0.423142 -0.469545 0 0 0 
0.111716 0.278347 0.00446706 0 0 0 
0.0912586 0.337995 -0.417208 0 0 0 
0.173922 -0.157057 -0.130574 0 0 0 
0.0804138 0.389991 -0.421071 0 0 0 
-0.20831 0.177439 -0.251011 0 0 0 
0.0660419 0.34815 0.402467 0 0 0 
-0.245986 0.233566 -0.207276 0 0 0 
0.0894314 0.372979 -0.298633 0 0 0 
0.183826 0.413698 0.0851851 0 0 0 
-0.130029 0.405831 -0.474409 0 0 0 
-0.17423 0.281716 -0.0726541 0 0 0 
0.181335 0.281204 -0.0813471 0 0 0 
0.168951 -0.126605 -0.17141 0 0 0 
-0.19845 -0.0209194 -0.225149 0 0 0 
0.177362 0.398765 0.0777974 0 0 0 
0.0472066 0.418916 0.198644 0 0 0 
-0.305403 -0.0938861 -0.496391 0 0 0 
-0.097375 0.406622 0.228405 0 0 0 
-0.309476 -0.170445 -0.469676 0 0 0 
-0.0904498 0.251944 0.43648 0 0 0 
0.121433 0.262198 -0.21976 0 0 0 
-0.200313 -0.086742 -0.314524 0 0 0 
-0.177666 0.411372 0.0933347 0 0 0 
-0.0785145 0.24219 0.460894 0 0 0 
0.0799096 0.322188 0.066722 0 0 0 
0.205427 0.294661 -0.139871 0 0 0 
-0.0494264 0.395311 0.345097 0 0 0 
0.231795 0.418408 0.0324434 0 0 0 
-0.0677758 0.246179 0.373266 0 0 0 
0.172111 -0.258303 -0.252808 0 0 0 
-0.159775 -0.0945767 -0.0353997 0 0 0 
-0.0650449 0.240354 0.367933 0 0 0 
0.290378 0.153353 -0.468273 0 0 0 
0.211752 0.246988 0.00964528 0 0 0 
-0.159134 0.254929 -0.400056 0 0 0 
-0.312831 0.0394506 -0.430192 0 0 0 
-0.201108 -0.270122 -0.380274 0 0 0 
-0.097319 -0.255803 -0.0487458 0 0 0 
-0.183495 0.272312 -0.141574 0 0 0 
-0.0229899 0.229397 0.284368 0 0 0 
-0.177504 -0.331959 -0.400981 0 0 0 
-0.221655 -0.0790924 -0.353257 0 0 0 
0.0579088 0.334718 0.340724 0 0 0 
-0.188652 0.367127 0.0914894 0 0 0 
0.151334 -0.223183 -0.138351 0 0 0 
-0.130184 0.398451 0.229494 0 0 0 
0.208164 0.160718 -0.220987 0 0 0 
0.144269 0.247803 0.0141653 0 0 0 
0.0589445 -0.250521 -0.171648 0 0 0 
0.0482916 0.381056 0.396929 0 0 0 
-0.0971057 -0.25668 -0.196939 0 0 0 
-0.168448 -0.242346 -0.0800588 0 0 0 
-0.00873949 0.434801 0.0921075 0 0 0 
0.0624625 0.441785 -0.0507385 0 0 0 
-0.0329503 0.414546 -0.25776 0 0 0 
-0.180785 -0.124085 -0.205274 0 0 0 
-0.0120097 0.254703 0.27628 0 0 0 
0.135721 -0.41664 -0.43771 0 0 0 
-0.0977558 0.247916 -0.361051 0 0 0 
-0.31873 -0.127133 -0.458766 0 0 0 
0.23207 0.190634 -0.416482 0 0 0 
-0.301381 -0.179785 -0.488933 0 0 0 
-0.207077 0.247241 -0.313397 0 0 0 
0.144493 -0.304618 -0.276826 0 0 0 
-0.18938 -0.0688988 -0.177067 0 0 0 
0.192803 -0.0376768 -0.240971 0 0 0 
-0.132882 0.249736 -0.387112 0 0 0 
0.0658533 -0.350352 -0.380121 0 0 0 
-0.0789957 0.24454 0.446277 0 0 0 
-0.17508 0.272594 -0.171205 0 0 0 
-0.16423 -0.254454 -0.32976 0 0 0 
0.204751 0.121806 -0.0878866 0 0 0 
-0.0331191 -0.40439 -0.225231 0 0 0 
0.205325 0.238686 -0.311586 0 0 0 
-0.124791 0.265676 0.43903 0 0 0 
0.210169 0.193087 -0.310802 0 0 0 
-0.208002 0.258589 -0.224012 0 0 0 
-0.0361973 0.240542 -0.380189 0 0 0 
0.0513746 -0.270083 -0.0875626 0 0 0 
-0.21325 0.0307242 -0.312368 0 0 0 
-0.0730859 0.287356 0.137444 0 0 0 
-0.2283 0.166458 -0.367908 0 0 0 
0.206587 0.424375 0.0926536 0 0 0 
-0.21719 -0.354708 -0.453931 0 0 0 
0.0149045 0.449426 -0.0144507 0 0 0 
-0.106686 0.245888 -0.387918 0 0 0 
0.0403035 0.36917 -0.418006 0 0 0 
0.254943 0.0521912 -0.376388 0 0 0 
-0.123228 0.235521 -0.0238035 0 0 0 
-0.2615 0.386599 -0.0370932 0 0 0 
-0.220304 0.206281 -0.399837 0 0 0 
-0.176835 0.419306 0.108921 0 0 0 
0.245372 0.362737 -0.0429752 0 0 0 
0.219359 0.0970993 -0.219654 0 0 0 
0.0662393 -0.340219 -0.365587 0 0 0 
0.15399 0.387914 -0.459533 0 0 0 
0.0802626 0.396758 -0.115878 0 0 0 
0.223146 0.354063 -0.0973684 0 0 0 
-0.209966 0.237866 -0.294907 0 0 0 
-0.122859 0.271676 -0.180011 0 0 0 
0.0607997 -0.251361 -0.0312781 0 0 0 
-0.211725 0.25021 -0.229975 0 0 0 
0.275489 -0.013649 -0.406764 0 0 0 
-0.188209 -0.239761 -0.35752 0 0 0 
0.056466 0.380893 -0.359632 0 0 0 
0.0703767 0.438357 -0.0145561 0 0 0 
0.305766 -0.107444 -0.425608 0 0 0 
-0.214209 -0.13772 -0.352692 0 0 0 
-0.237551 0.183527 -0.211621 0 0 0 
-0.207828 0.141587 -0.0941871 0 0 0 
0.236249 0.181643 -0.205354 0 0 0 
-0.302038 0.0207308 -0.421134 0 0 0 
-0.220344 0.0485323 -0.32014 0 0 0 
-0.300603 -0.191715 -0.433161 0 0 0 
-0.19881 0.0493643 -0.0638826 0 0 0 
-0.0573542 -0.398506 -0.413819 0 0 0 
0.00878317 0.221701 0.326288 0 0 0 
0.212825 0.0582312 -0.198937 0 0 0 
0.235836 -0.0902542 -0.372178 0 0 0 
-0.101103 0.238739 -0.00154073 0 0 0 
0.00729615 -0.404105 -0.277809 0 0 0 
0.188406 -0.204978 -0.332523 0 0 0 
-0.239869 0.124383 -0.369059 0 0 0 
0.0877796 0.411622 0.173138 0 0 0 
-0.245538 0.345487 -0.0131958 0 0 0 
-0.105309 0.273673 -0.153685 0 0 0 
0.194554 0.0532105 -0.11106 0 0 0 
-0.188888 -0.0632527 -0.276358 0 0 0 
-0.242593 0.285259 -0.469636 0 0 0 
-0.124204 0.2511 -0.400877 0 0 0 
-0.165063 0.373931 -0.438621 0 0 0 
0.213603 0.192728 -0.328203 0 0 0 
-0.173961 0.277998 0.00446872 0 0 0 
0.0331209 0.271529 0.137729 0 0 0 
0.290784 -0.0049649 -0.411953 0 0 0 
-0.0709274 0.239653 0.395867 0 0 0 
-0.241726 0.295575 -0.160412 0 0 0 
-0.189791 -0.0687237 -0.0641832 0 0 0 
0.177366 -0.224117 -0.0800393 0 0 0 
-0.176532 0.256974 -0.417191 0 0 0 
0.199564 -0.270119 -0.380275 0 0 0 
-0.00885768 -0.398345 -0.297008 0 0 0 
-0.176532 -0.156411 -0.184738 0 0 0 
-0.0907038 0.384057 0.412571 0 0 0 
-0.0813799 0.403675 -0.186802 0 0 0 
-0.127849 -0.323375 -0.227561 0 0 0 
0.270948 -0.100728 -0.416487 0 0 0 
-0.066294 0.243485 0.324405 0 0 0 
0.0812526 0.379268 -0.169251 0 0 0 
-0.00077044 -0.4297 -0.418356 0 0 0 
0.174719 -0.155972 -0.198253 0 0 0 
0.0150364 0.439566 -0.464931 0 0 0 
0.131253 0.24684 -0.347269 0 0 0 
-0.197512 -0.0232719 -0.185395 0 0 0 
0.120553 0.282219 -0.0552976 0 0 0 
0.0563753 -0.388088 -0.353533 0 0 0 
-0.0286105 0.221648 0.306354 0 0 0 
0.0332769 -0.307501 -0.10281 0 0 0 
0.138625 0.272466 -0.171217 0 0 0 
-0.0805125 0.428405 -0.255648 0 0 0 
-0.00861986 -0.450861 -0.448138 0 0 0 
0.239698 0.205727 -0.16501 0 0 0 
0.0316612 0.394665 -0.140369 0 0 0 
0.177889 -0.141878 -0.193448 0 0 0 
-0.197624 0.0584555 -0.0820479 0 0 0 
0.222044 0.227916 -0.069186 0 0 0 
-0.204167 -0.24548 -0.37389 0 0 0 
0.0162473 -0.30759 -0.102804 0 0 0 
-0.123965 0.251415 -0.360368 0 0 0 
-0.173206 -0.179824 -0.309863 0 0 0 
0.159941 -0.228943 -0.305151 0 0 0 
0.286947 -0.234682 -0.477785 0 0 0 
-0.0700631 0.239756 0.386365 0 0 0 
0.24846 -0.251723 -0.421627 0 0 0 
-0.0271232 -0.254872 -0.0312112 0 0 0 
-0.224593 0.247938 -0.00154073 0 0 0 
0.0234396 -0.404067 -0.261672 0 0 0 
0.032604 0.239284 0.372183 0 0 0 
0.234517 0.330986 -0.115496 0 0 0 
0.221401 0.159424 -0.339298 0 0 0 
-0.0975216 0.250643 0.475096 0 0 0 
-0.302229 -0.20011 -0.449896 0 0 0 
0.223658 0.353508 -0.0319914 0 0 0 
-0.0976837 0.407322 -0.0678691 0 0 0 
-0.106221 0.250757 -0.320168 0 0 0 
-0.0167087 0.21297 0.318036 0 0 0 
0.0470658 0.420476 0.103194 0 0 0 
0.00707623 0.439886 0.0115845 0 0 0 
0.176757 -0.153387 -0.0580546 0 0 0 
-0.0901217 0.390177 -0.396664 0 0 0 
0.0977285 -0.221631 -0.13847 0 0 0 
-0.284489 0.0253144 -0.407784 0 0 0 
0.291689 0.144633 -0.450722 0 0 0 
-0.312175 -0.0116381 -0.421833 0 0 0 
-0.211784 0.225365 -0.273087 0 0 0 
-0.141751 -0.248567 -0.0489525 0 0 0 
-0.0915149 -0.363614 -0.405794 0 0 0 
-0.0770454 -0.32278 -0.236112 0 0 0 
-0.153483 -0.237341 -0.29451 0 0 0 
-0.0606558 -0.27782 -0.188714 0 0 0 
-0.149234 -0.256454 -0.295157 0 0 0 
0.198932 0.365179 0.119585 0 0 0 
0.0590475 -0.292648 -0.128518 0 0 0 
0.144129 0.238797 -0.00154073 0 0 0 
-0.0400427 0.454798 -0.0425199 0 0 0 
-0.156988 0.247714 0.0141649 0 0 0 
-0.204725 0.112427 -0.0727145 0 0 0 
0.0951694 0.419307 -0.451161 0 0 0 
-0.177028 -0.16754 -0.114122 0 0 0 
0.202863 0.101562 -0.0482789 0 0 0 
-0.14034 0.271093 -0.18879 0 0 0 
-0.227977 0.259431 -0.0405251 0 0 0 
-0.0944096 -0.308251 -0.329906 0 0 0 
0.162394 0.345773 0.141972 0 0 0 
0.197201 0.047518 -0.0574706 0 0 0 
0.164652 0.273493 -0.422202 0 0 0 
-0.151677 0.338972 0.221732 0 0 0 
-0.0118686 0.224658 0.409258 0 0 0 
0.0218401 0.276943 0.0993661 0 0 0 
-0.28053 -0.251214 -0.477257 0 0 0 
0.0234223 0.399847 -0.0947522 0 0 0 
0.194411 0.313097 -0.423136 0 0 0 
-0.0450861 0.22389 0.409122 0 0 0 
-0.196872 -0.0300009 -0.21627 0 0 0 
-0.268048 -0.0313106 -0.41161 0 0 0 
-0.207441 0.243754 -0.375545 0 0 0 
0.190376 -0.061711 -0.291279 0 0 0 
0.0384834 0.452393 -0.0425771 0 0 0 
0.226476 0.135836 -0.166206 0 0 0 
0.192841 0.408343 0.0568416 0 0 0 
0.224142 0.408937 0.0199133 0 0 0 
-0.293682 0.146452 -0.473812 0 0 0 
-0.0564279 0.434304 0.0400858 0 0 0 
-0.313913 0.0309158 -0.429929 0 0 0 
0.0477436 0.269669 0.436484 0 0 0 
0.0915448 0.321754 0.163682 0 0 0 
-0.282382 -0.216321 -0.49409 0 0 0 
0.16984 -0.393338 -0.471875 0 0 0 
-0.209016 0.162634 -0.264474 0 0 0 
0.0473911 0.266666 0.460648 0 0 0 
0.0348438 0.291965 -0.409114 0 0 0 
-0.216445 0.422376 0.0927583 0 0 0 
0.176599 -0.151125 -0.193577 0 0 0 
-0.0168361 0.412903 -0.102021 0 0 0 
-0.168132 -0.146495 -0.176385 0 0 0 
-0.135434 -0.213768 -0.170298 0 0 0 
-0.199057 0.0185908 -0.293017 0 0 0 
0.0871557 0.419622 -0.443081 0 0 0 
-0.0491474 0.225986 0.327181 0 0 0 
-0.0447174 -0.253483 -0.0312377 0 0 0 
0.283044 -0.243832 -0.478807 0 0 0 
-0.124096 0.249451 -0.378365 0 0 0 
-0.282605 -0.236892 -0.428874 0 0 0 
0.010263 0.222863 0.358549 0 0 0 
-0.201869 -0.0143265 -0.305222 0 0 0 
0.0513835 0.269516 0.478944 0 0 0 
0.0257133 0.239584 -0.339812 0 0 0 
0.0366462 0.251347 0.307719 0 0 0 
0.113752 -0.248638 -0.0401402 0 0 0 
0.157003 -0.254509 -0.328658 0 0 0 
0.0311935 0.422549 0.172046 0 0 0 
0.0149501 -0.452061 -0.436294 0 0 0 
0.0483914 0.380876 0.370381 0 0 0 
-0.215274 -0.146622 -0.352494 0 0 0 
-0.204976 -0.165463 -0.345378 0 0 0 
0.0918543 -0.334204 -0.364566 0 0 0 
0.16697 -0.212984 -0.253494 0 0 0 
-0.170178 0.406057 0.184045 0 0 0 
0.22646 0.135837 -0.139455 0 0 0 
-0.172687 -0.15545 -0.137303 0 0 0 
-0.200607 0.36976 0.0680812 0 0 0 
-0.0168838 0.413415 0.39741 0 0 0 
0.0921225 -0.329083 -0.357169 0 0 0 
0.0559707 0.281841 0.126967 0 0 0 
-0.187264 -0.237646 -0.357696 0 0 0 
0.237492 -0.17483 -0.391076 0 0 0 
-0.0249515 0.405457 -0.186607 0 0 0 
-0.226362 0.125603 -0.133469 0 0 0 
0.150589 -0.333395 -0.392244 0 0 0 
0.0879544 0.401479 0.0200198 0 0 0 
0.0399006 0.393008 0.384069 0 0 0 
-0.0166068 0.444277 0.0477461 0 0 0 
-0.00878021 0.423161 0.134896 0 0 0 
0.0560598 0.292631 0.341392 0 0 0 
-0.183862 0.271911 -0.179987 0 0 0 
-0.16272 -0.236038 -0.207167 0 0 0 
0.0421866 0.257381 0.321039 0 0 0 
-0.100667 0.352691 0.428509 0 0 0 
-0.0726847 0.421581 -0.319158 0 0 0 
-0.183545 -0.105641 -0.186725 0 0 0 
0.189118 -0.0135817 -0.088631 0 0 0 
0.210892 -0.31802 -0.424899 0 0 0 
-0.135762 0.332165 0.380819 0 0 0 
0.0068859 0.275391 0.167433 0 0 0 
0.233328 -0.0459494 -0.35491 0 0 0 
-0.232068 0.303772 -0.151105 0 0 0 
0.241552 0.21093 -0.171427 0 0 0 
-0.211947 0.210636 -0.312585 0 0 0 
0.0790463 0.422007 -0.442457 0 0 0 
0.0676475 -0.299518 -0.201004 0 0 0 
0.0561666 0.290633 0.420882 0 0 0 
-0.11479 -0.253939 -0.197226 0 0 0 
0.0476104 0.404625 -0.123423 0 0 0 
-0.210067 0.198559 -0.291339 0 0 0 
-0.000777459 -0.38211 -0.183799 0 0 0 
-0.1984 -0.211322 -0.355628 0 0 0 
-0.156946 -0.280412 -0.224409 0 0 0 
-0.226495 0.148771 -0.35041 0 0 0 
-0.214574 0.177002 -0.0938337 0 0 0 
0.281874 0.371172 -0.0133181 0 0 0 
-0.00955984 0.260191 -0.241207 0 0 0 
0.226831 -0.0728514 -0.365063 0 0 0 
0.289159 0.153457 -0.451348 0 0 0 
0.14022 0.251278 -0.400838 0 0 0 
0.0318323 0.389024 0.267007 0 0 0 
0.0315992 -0.402682 -0.217365 0 0 0 
0.182746 -0.037709 -0.129986 0 0 0 
0.047602 0.26648 0.339726 0 0 0 
-0.262981 -0.083917 -0.403992 0 0 0 
-0.000799432 0.262127 -0.4248 0 0 0 
-0.197249 -0.102672 -0.337712 0 0 0 
0.221145 -0.0462394 -0.339344 0 0 0 
0.13541 -0.315147 -0.342934 0 0 0 
0.246148 0.237035 -0.116935 0 0 0 
0.263655 -0.136071 -0.418153 0 0 0 
0.218763 0.206418 -0.0399977 0 0 0 
-0.200502 0.365178 0.119585 0 0 0 
0.187476 -0.0774713 -0.192489 0 0 0 
0.215499 0.285259 -0.428164 0 0 0 
-0.323677 -0.00312067 -0.452945 0 0 0 
0.310332 -0.0305194 -0.424521 0 0 0 
0.0551805 0.255123 0.0365857 0 0 0 
-0.188177 -0.0299658 -0.0952164 0 0 0 
0.22647 0.129116 -0.179672 0 0 0 
-0.0202352 0.287639 -0.422894 0 0 0 
0.30606 -0.180994 -0.46424 0 0 0 
-0.131424 0.273816 -0.153673 0 0 0 
-0.0479378 0.449862 -0.0223013 0 0 0 
-0.114958 0.299216 0.393017 0 0 0 
-0.17178 -0.392619 -0.435858 0 0 0 
-0.20216 0.0695289 -0.24279 0 0 0 
-0.041295 0.39458 -0.395636 0 0 0 
-0.0408545 0.416895 -0.228323 0 0 0 
0.114812 -0.234981 -0.110777 0 0 0 
0.281551 0.180075 -0.453232 0 0 0 
-0.192213 0.0131667 -0.0913685 0 0 0 
0.178187 -0.120122 -0.121142 0 0 0 
-0.320246 -0.0285575 -0.428391 0 0 0 
-0.158506 0.262448 -0.307221 0 0 0 
-0.0246437 0.43132 0.100234 0 0 0 
-0.016601 0.438066 0.0273924 0 0 0 
-0.154753 -0.246451 -0.31285 0 0 0 
0.178435 -0.129413 -0.251965 0 0 0 
-0.159495 -0.244094 -0.315368 0 0 0 
-0.0576066 0.287897 0.0998355 0 0 0 
-0.0488634 0.421246 0.172176 0 0 0 
0.175024 -0.101993 -0.139663 0 0 0 
0.143045 0.247171 0.023911 0 0 0 
0.00729612 -0.40411 -0.269736 0 0 0 
-0.0440811 0.29806 0.0521338 0 0 0 
0.194659 0.0203717 -0.0575432 0 0 0 
-0.19238 0.267466 0.0132266 0 0 0 
0.174726 -0.157152 -0.261623 0 0 0 
-0.191599 0.274727 -0.0758849 0 0 0 
-0.171603 -0.223126 -0.114458 0 0 0 
0.173264 0.271467 -0.150342 0 0 0 
0.224054 -0.0461702 -0.347747 0 0 0 
-0.212522 0.23739 -0.415045 0 0 0 
0.0327686 0.247235 0.297762 0 0 0 
0.200272 -0.00136555 -0.221927 0 0 0 
-0.018805 0.20442 0.360879 0 0 0 
0.0854515 -0.284864 -0.202609 0 0 0 
-0.0647782 0.420415 0.0848653 0 0 0 
0.0396242 -0.399092 -0.288797 0 0 0 
-0.240455 0.200954 -0.211289 0 0 0 
-0.0127327 0.227451 0.439386 0 0 0 
-0.101542 -0.335809 -0.374909 0 0 0 
-0.192499 -0.0860104 -0.310137 0 0 0 
-0.282642 -0.178219 -0.425659 0 0 0 
0.0391253 0.425492 0.147788 0 0 0 
0.190839 0.0136879 -0.0976362 0 0 0 
-0.0273028 0.240492 -0.339644 0 0 0 
0.103575 0.272534 -0.132858 0 0 0 
-0.194464 0.408339 0.0568418 0 0 0 
-0.228171 0.1344 -0.169009 0 0 0 
0.0393765 0.408197 -0.0862383 0 0 0 
-0.156541 -0.285133 -0.258439 0 0 0 
0.13883 0.263062 -0.21093 0 0 0 
0.254105 -0.207041 -0.420336 0 0 0 
-0.0725929 0.423955 -0.235325 0 0 0 
0.00712152 0.435771 -0.454689 0 0 0 
-0.288218 -0.218907 -0.427538 0 0 0 
0.150368 -0.231851 -0.186444 0 0 0 
0.257906 0.222998 -0.428235 0 0 0 
-0.185906 -0.114465 -0.0825501 0 0 0 
0.155951 -0.263898 -0.328833 0 0 0 
-0.000792413 0.236657 0.494549 0 0 0 
0.150102 0.338975 0.221732 0 0 0 
0.167748 0.410629 0.103803 0 0 0 
-0.0708835 0.242939 0.342995 0 0 0 
0.0168624 0.240916 -0.330733 0 0 0 
-0.0561945 0.441056 -0.0744963 0 0 0 
0.0559666 0.285474 0.379441 0 0 0 
0.161077 -0.403317 -0.449292 0 0 0 
0.010333 0.237583 0.394162 0 0 0 
-0.119681 0.28774 0.409765 0 0 0 
0.144447 -0.408506 -0.431773 0 0 0 
-0.00956592 0.258912 -0.25014 0 0 0 
-0.0811631 -0.223309 -0.169435 0 0 0 
0.120233 0.401716 0.229059 0 0 0 
0.0661509 0.247342 0.0141631 0 0 0 
0.160999 -0.19174 -0.17213 0 0 0 
0.20829 0.205728 -0.23898 0 0 0 
0.0970592 -0.234407 -0.110813 0 0 0 
0.214038 0.222338 -0.40704 0 0 0 
-0.142078 -0.350437 -0.417181 0 0 0 
0.174112 -0.0895938 -0.143443 0 0 0 
0.322481 -0.0270657 -0.443097 0 0 0 
-0.204721 0.114736 -0.112408 0 0 0 
-0.0234917 0.285627 0.0656774 0 0 0 
0.0642655 0.390985 -0.231901 0 0 0 
-0.0327096 0.427501 -0.156452 0 0 0 
-0.119823 -0.313401 -0.292494 0 0 0 
-0.173543 0.28162 -0.421994 0 0 0 
0.223386 0.418031 0.0929859 0 0 0 
-0.0329917 -0.404425 -0.420436 0 0 0 
0.118277 -0.316801 -0.342619 0 0 0 
-0.313953 -0.122245 -0.429919 0 0 0 
-0.0121455 0.290722 0.0484565 0 0 0 
-0.141525 0.255135 -0.417603 0 0 0 
-0.0649395 0.412925 0.119693 0 0 0 
-0.232916 0.297173 -0.160267 0 0 0 
-0.210702 0.222214 -0.250692 0 0 0 
0.0707796 0.431898 -0.467085 0 0 0 
0.246259 -0.269663 -0.42213 0 0 0 
-0.201817 0.25696 -0.314273 0 0 0 
-0.0718058 -0.44522 -0.438118 0 0 0 
0.188605 -0.202034 -0.340614 0 0 0 
-0.178556 0.231212 -0.00154073 0 0 0 
-0.0523072 -0.292079 -0.095103 0 0 0 
0.150248 0.33785 0.153137 0 0 0 
-0.22365 0.188037 -0.390181 0 0 0 
-0.027322 0.239153 -0.348733 0 0 0 
-0.068534 -0.323753 -0.227513 0 0 0 
-0.13694 -0.308665 -0.295788 0 0 0 
0.069388 -0.256847 -0.0399448 0 0 0 
-0.175652 -0.161097 -0.196645 0 0 0 
0.318364 -0.108643 -0.472585 0 0 0 
0.211281 0.241359 -0.220616 0 0 0 
0.0794911 -0.229256 -0.120051 0 0 0 
0.171792 -0.117238 -0.14362 0 0 0 
0.285135 0.171078 -0.460983 0 0 0 
0.183039 0.42088 0.10083 0 0 0 
-0.000800348 0.23968 -0.362659 0 0 0 
-0.141208 0.252759 -0.32859 0 0 0 
0.201105 0.0949344 -0.0880602 0 0 0 
-0.157537 0.273941 -0.153662 0 0 0 
-0.218171 0.340292 -0.106516 0 0 0 
0.202185 -0.149335 -0.339194 0 0 0 
0.203604 0.0166872 -0.230556 0 0 0 
-0.265408 -0.114507 -0.412879 0 0 0 
0.208444 -0.192305 -0.357236 0 0 0 
0.170045 -0.194275 -0.234711 0 0 0 
-0.174887 -0.161322 -0.300419 0 0 0 
0.133555 -0.336233 -0.391609 0 0 0 
-0.183684 0.157303 -0.00154073 0 0 0 
-0.133812 -0.233069 -0.107063 0 0 0 
0.0153676 -0.404106 -0.269737 0 0 0 
-0.222288 0.203103 -0.102375 0 0 0 
0.231036 0.0874324 -0.364242 0 0 0 
-0.0117779 0.212559 0.340942 0 0 0 
-0.184935 0.260992 -0.307464 0 0 0 
0.144557 -0.303829 -0.285495 0 0 0 
-0.222438 0.193823 -0.369053 0 0 0 
0.144348 -0.309677 -0.237859 0 0 0 
-0.19891 0.242051 0.0167285 0 0 0 
-0.20502 0.168724 -0.242422 0 0 0 
-0.10253 -0.321708 -0.244735 0 0 0 
-0.0482513 0.435651 0.0116248 0 0 0 
0.144143 -0.412061 -0.43891 0 0 0 
-0.0566754 0.422881 -0.227497 0 0 0 
0.00727877 0.39549 0.43785 0 0 0 
0.0805882 0.393124 -0.277303 0 0 0 
0.311151 0.0408866 -0.437388 0 0 0 
0.183909 -0.0925671 -0.223875 0 0 0 
-0.00887406 0.40888 0.414596 0 0 0 
-0.211404 0.195139 -0.223607 0 0 0 
0.209251 0.244901 -0.279403 0 0 0 
0.163763 -0.163815 -0.17188 0 0 0 
0.187297 0.0921868 -0.0224384 0 0 0 
0.048777 -0.364515 -0.1484 0 0 0 
0.115896 -0.214217 -0.161283 0 0 0 
0.112624 0.263462 -0.202159 0 0 0 
-0.0999953 0.367716 0.364936 0 0 0 
-0.0821044 0.392386 0.102458 0 0 0 
-0.0330624 -0.404039 -0.261676 0 0 0 
-0.226962 -0.343448 -0.45688 0 0 0 
0.149759 -0.24872 -0.297468 0 0 0 
-0.325847 -0.0590061 -0.465388 0 0 0 
-0.136249 -0.324437 -0.358099 0 0 0 
0.246604 -0.0599964 -0.392216 0 0 0 
0.228396 0.141008 -0.355849 0 0 0 
-0.174095 0.283127 -0.0552716 0 0 0 
0.0807948 0.28048 -0.407735 0 0 0 
-0.265146 0.232895 -0.450514 0 0 0 
0.236378 0.18507 -0.135281 0 0 0 
-0.169607 -0.0175947 -0.0235222 0 0 0 
-0.106525 -0.244978 -0.079946 0 0 0 
0.314809 0.0492963 -0.470487 0 0 0 
0.0643433 0.388942 -0.22404 0 0 0 
0.164858 -0.356881 -0.423928 0 0 0 
0.146334 0.281709 -0.016048 0 0 0 
0.0274554 0.285361 0.245336 0 0 0 
-0.0329277 0.409284 -0.20225 0 0 0 
-0.271197 0.000742701 -0.403103 0 0 0 
