ply
format ascii 1.0
comment VCGLIB generated
element vertex 1318
property float x
property float y
property float z
property float nx
property float ny
property float nz
element face 0
property list uchar int vertex_indices
end_header
-0.21934 -0.205749 -0.373165 0 0 0 
-0.217241 -0.214948 -0.373585 0 0 0 
-0.214283 -0.22427 -0.374177 0 0 0 
-0.213181 -0.233389 -0.374397 0 0 0 
-0.212424 -0.242476 -0.374548 0 0 0 
-0.205652 -0.252371 -0.375903 0 0 0 
-0.202485 -0.261833 -0.376536 0 0 0 
-0.0609161 0.291735 -0.414564 0 0 0 
-0.0202352 0.287639 -0.422894 0 0 0 
-0.0239014 0.277243 -0.422143 0 0 0 
-0.204737 0.244102 -0.385115 0 0 0 
-0.210242 0.234391 -0.383987 0 0 0 
-0.214952 0.224828 -0.383023 0 0 0 
-0.218579 0.215433 -0.38228 0 0 0 
-0.220563 0.206253 -0.381874 0 0 0 
-0.222031 0.197145 -0.381574 0 0 0 
-0.224237 0.187978 -0.381122 0 0 0 
-0.226836 0.178794 -0.38059 0 0 0 
-0.229839 0.169599 -0.379975 0 0 0 
-0.232329 0.160476 -0.379465 0 0 0 
-0.235696 0.151306 -0.378776 0 0 0 
-0.23979 0.142112 -0.377937 0 0 0 
-0.243841 0.132961 -0.377108 0 0 0 
-0.249204 0.123761 -0.37601 0 0 0 
-0.252193 0.114758 -0.375398 0 0 0 
-0.251449 0.105998 -0.37555 0 0 0 
-0.250201 0.0972566 -0.375805 0 0 0 
-0.251273 0.0883931 -0.375586 0 0 0 
-0.25409 0.079465 -0.375009 0 0 0 
-0.256577 0.0705762 -0.3745 0 0 0 
-0.258926 0.0617158 -0.374019 0 0 0 
-0.260443 0.0529015 -0.373708 0 0 0 
-0.249123 0.0444073 -0.376026 0 0 0 
-0.241944 0.0357264 -0.377496 0 0 0 
-0.242482 0.0268669 -0.377386 0 0 0 
-0.242096 0.0180213 -0.377465 0 0 0 
-0.240814 0.00917628 -0.377728 0 0 0 
-0.246605 0.000319071 -0.376542 0 0 0 
-0.248072 -0.00850357 -0.376241 0 0 0 
-0.245198 -0.0173536 -0.37683 0 0 0 
-0.252292 -0.0260886 -0.375377 0 0 0 
-0.255881 -0.0348228 -0.374642 0 0 0 
-0.250804 -0.0437291 -0.375682 0 0 0 
-0.242252 -0.0527831 -0.377433 0 0 0 
-0.239102 -0.0617384 -0.378078 0 0 0 
-0.240369 -0.0705555 -0.377819 0 0 0 
-0.240641 -0.0794032 -0.377763 0 0 0 
-0.241493 -0.0882206 -0.377588 0 0 0 
-0.241658 -0.097066 -0.377555 0 0 0 
-0.239955 -0.106016 -0.377903 0 0 0 
-0.23702 -0.115059 -0.378504 0 0 0 
-0.236117 -0.123995 -0.378689 0 0 0 
-0.233936 -0.13303 -0.379136 0 0 0 
-0.232407 -0.142037 -0.379449 0 0 0 
-0.23322 -0.150868 -0.379283 0 0 0 
-0.233988 -0.159696 -0.379125 0 0 0 
-0.232489 -0.168721 -0.379432 0 0 0 
-0.228981 -0.177952 -0.38015 0 0 0 
-0.22653 -0.187111 -0.380652 0 0 0 
-0.223939 -0.196307 -0.381183 0 0 0 
-0.224683 -0.205163 -0.381031 0 0 0 
-0.22273 -0.214321 -0.381431 0 0 0 
-0.219875 -0.223604 -0.382015 0 0 0 
-0.218504 -0.23273 -0.382296 0 0 0 
-0.21696 -0.241892 -0.382612 0 0 0 
-0.210934 -0.251667 -0.383846 0 0 0 
-0.207547 -0.261134 -0.384539 0 0 0 
-0.0608667 0.291742 -0.424288 0 0 0 
-0.0610808 0.281998 -0.424243 0 0 0 
-0.0638126 0.271921 -0.423671 0 0 0 
-0.200652 0.244627 -0.395 0 0 0 
-0.209206 0.23452 -0.393207 0 0 0 
-0.213747 0.224971 -0.392256 0 0 0 
-0.217417 0.215566 -0.391487 0 0 0 
-0.219991 0.206315 -0.390948 0 0 0 
-0.221801 0.197169 -0.390568 0 0 0 
-0.22365 0.188037 -0.390181 0 0 0 
-0.226171 0.178858 -0.389653 0 0 0 
-0.22977 0.169605 -0.388899 0 0 0 
-0.234827 0.160262 -0.387839 0 0 0 
-0.239007 0.151038 -0.386963 0 0 0 
-0.243626 0.14182 -0.385996 0 0 0 
-0.249248 0.132575 -0.384818 0 0 0 
-0.257204 0.123227 -0.383151 0 0 0 
-0.258675 0.114357 -0.382842 0 0 0 
-0.257263 0.105666 -0.383138 0 0 0 
-0.255286 0.0969903 -0.383553 0 0 0 
-0.255735 0.0881806 -0.383458 0 0 0 
-0.259185 0.0792466 -0.382736 0 0 0 
-0.262287 0.0703587 -0.382086 0 0 0 
-0.26304 0.0615786 -0.381928 0 0 0 
-0.261809 0.0528624 -0.382186 0 0 0 
-0.253911 0.0442933 -0.383841 0 0 0 
-0.248583 0.0355999 -0.384957 0 0 0 
-0.251058 0.0267444 -0.384439 0 0 0 
-0.250022 0.0179458 -0.384655 0 0 0 
-0.248027 0.00914193 -0.385074 0 0 0 
-0.250014 0.000319071 -0.384657 0 0 0 
-0.250004 -0.00849437 -0.384659 0 0 0 
-0.248969 -0.0173177 -0.384876 0 0 0 
-0.244185 -0.0262044 -0.385879 0 0 0 
-0.24737 -0.0349849 -0.385211 0 0 0 
-0.248234 -0.0437903 -0.38503 0 0 0 
-0.248137 -0.0526149 -0.38505 0 0 0 
-0.248287 -0.0614323 -0.385019 0 0 0 
-0.249224 -0.0702182 -0.384823 0 0 0 
-0.246871 -0.0791362 -0.385316 0 0 0 
-0.244707 -0.0880676 -0.385769 0 0 0 
-0.242982 -0.0969966 -0.386131 0 0 0 
-0.241082 -0.105952 -0.386529 0 0 0 
-0.239759 -0.11489 -0.386806 0 0 0 
-0.238625 -0.123828 -0.387044 0 0 0 
-0.23762 -0.132767 -0.387254 0 0 0 
-0.237333 -0.141661 -0.387314 0 0 0 
-0.238145 -0.150469 -0.387144 0 0 0 
-0.239445 -0.159228 -0.386872 0 0 0 
-0.239525 -0.168084 -0.386855 0 0 0 
-0.237149 -0.177174 -0.387353 0 0 0 
-0.23302 -0.186462 -0.388218 0 0 0 
-0.228326 -0.195848 -0.389201 0 0 0 
-0.228395 -0.204757 -0.389187 0 0 0 
-0.227835 -0.213737 -0.389304 0 0 0 
-0.224939 -0.223001 -0.389911 0 0 0 
-0.221955 -0.232303 -0.390536 0 0 0 
-0.21923 -0.2416 -0.391107 0 0 0 
-0.21531 -0.251083 -0.391928 0 0 0 
-0.211791 -0.260548 -0.392666 0 0 0 
-0.107764 0.285042 -0.423953 0 0 0 
-0.108448 0.275457 -0.423806 0 0 0 
-0.117605 0.264749 -0.421844 0 0 0 
-0.201692 0.244494 -0.403825 0 0 0 
-0.209668 0.234463 -0.402116 0 0 0 
-0.213953 0.224947 -0.401198 0 0 0 
-0.217541 0.215552 -0.400429 0 0 0 
-0.220304 0.206281 -0.399837 0 0 0 
-0.222549 0.197091 -0.399356 0 0 0 
-0.224596 0.187942 -0.398917 0 0 0 
-0.227211 0.178759 -0.398357 0 0 0 
-0.231232 0.169473 -0.397495 0 0 0 
-0.236917 0.160083 -0.396277 0 0 0 
-0.243207 0.150698 -0.394929 0 0 0 
-0.248329 0.141462 -0.393832 0 0 0 
-0.255107 0.132156 -0.392379 0 0 0 
-0.263826 0.122786 -0.390511 0 0 0 
-0.2651 0.113959 -0.390238 0 0 0 
-0.263854 0.105289 -0.390505 0 0 0 
-0.261322 0.0966741 -0.391048 0 0 0 
-0.26259 0.0878542 -0.390776 0 0 0 
-0.264967 0.0789988 -0.390266 0 0 0 
-0.268739 0.0701129 -0.389458 0 0 0 
-0.270717 0.0613228 -0.389034 0 0 0 
-0.272219 0.052565 -0.388712 0 0 0 
-0.260998 0.0441245 -0.391117 0 0 0 
-0.25805 0.0354196 -0.391749 0 0 0 
-0.259948 0.0266173 -0.391342 0 0 0 
-0.258821 0.017862 -0.391583 0 0 0 
-0.261103 0.00907966 -0.391094 0 0 0 
-0.256979 0.000319071 -0.391978 0 0 0 
-0.256607 -0.00846293 -0.392058 0 0 0 
-0.25549 -0.0172556 -0.392297 0 0 0 
-0.250347 -0.0261164 -0.393399 0 0 0 
-0.251951 -0.0348976 -0.393056 0 0 0 
-0.253394 -0.0436674 -0.392746 0 0 0 
-0.255773 -0.0523967 -0.392236 0 0 0 
-0.256721 -0.0611511 -0.392033 0 0 0 
-0.253685 -0.0700483 -0.392684 0 0 0 
-0.251019 -0.0789584 -0.393255 0 0 0 
-0.249106 -0.0878581 -0.393665 0 0 0 
-0.248048 -0.0967313 -0.393892 0 0 0 
-0.251896 -0.105334 -0.393067 0 0 0 
-0.249125 -0.11431 -0.393661 0 0 0 
-0.245704 -0.123356 -0.394394 0 0 0 
-0.244033 -0.132309 -0.394752 0 0 0 
-0.242754 -0.141248 -0.395026 0 0 0 
-0.242037 -0.150154 -0.39518 0 0 0 
-0.241982 -0.15901 -0.395192 0 0 0 
-0.24158 -0.167899 -0.395278 0 0 0 
-0.239779 -0.176924 -0.395664 0 0 0 
-0.237 -0.186064 -0.396259 0 0 0 
-0.233858 -0.195268 -0.396933 0 0 0 
-0.231446 -0.201142 -0.401998 0 0 0 
-0.230456 -0.210157 -0.40221 0 0 0 
-0.229062 -0.21923 -0.402508 0 0 0 
-0.227177 -0.228376 -0.402912 0 0 0 
-0.224255 -0.237674 -0.403539 0 0 0 
-0.220444 -0.247118 -0.404355 0 0 0 
-0.212199 -0.257211 -0.406122 0 0 0 
-0.169857 0.279452 -0.42439 0 0 0 
-0.18375 0.268339 -0.421347 0 0 0 
-0.198517 0.257241 -0.418113 0 0 0 
-0.207563 0.247019 -0.416131 0 0 0 
-0.212522 0.23739 -0.415045 0 0 0 
-0.215906 0.227995 -0.414303 0 0 0 
-0.219058 0.218659 -0.413613 0 0 0 
-0.222084 0.209367 -0.41295 0 0 0 
-0.225278 0.200086 -0.412251 0 0 0 
-0.227954 0.190887 -0.411664 0 0 0 
-0.231338 0.181646 -0.410923 0 0 0 
-0.23579 0.172341 -0.409948 0 0 0 
-0.241403 0.162979 -0.408718 0 0 0 
-0.247327 0.153645 -0.407421 0 0 0 
-0.252649 0.144413 -0.406255 0 0 0 
-0.260387 0.135059 -0.40456 0 0 0 
-0.269323 0.1257 -0.402603 0 0 0 
-0.270804 0.116887 -0.402278 0 0 0 
-0.270892 0.108167 -0.402259 0 0 0 
-0.269011 0.0995517 -0.402671 0 0 0 
-0.268844 0.0908368 -0.402708 0 0 0 
-0.272368 0.081962 -0.401936 0 0 0 
-0.276244 0.0731074 -0.401087 0 0 0 
-0.278773 0.0643346 -0.400533 0 0 0 
-0.281101 0.0555917 -0.400023 0 0 0 
-0.271043 0.0471658 -0.402226 0 0 0 
-0.265258 0.0385627 -0.403493 0 0 0 
-0.269233 0.0297651 -0.402622 0 0 0 
-0.269268 0.0210429 -0.402615 0 0 0 
-0.272478 0.0123059 -0.401911 0 0 0 
-0.26962 0.00359951 -0.402538 0 0 0 
-0.265632 -0.00513951 -0.403411 0 0 0 
-0.262158 -0.0139116 -0.404172 0 0 0 
-0.257807 -0.0227293 -0.405125 0 0 0 
-0.260025 -0.0314634 -0.404639 0 0 0 
-0.263157 -0.0401545 -0.403953 0 0 0 
-0.262845 -0.0489142 -0.404022 0 0 0 
-0.2609 -0.0577314 -0.404448 0 0 0 
-0.258901 -0.0665691 -0.404886 0 0 0 
-0.259529 -0.0753132 -0.404748 0 0 0 
-0.262981 -0.083917 -0.403992 0 0 0 
-0.261706 -0.0927354 -0.404271 0 0 0 
-0.259488 -0.10162 -0.404757 0 0 0 
-0.257305 -0.110523 -0.405235 0 0 0 
-0.255104 -0.119449 -0.405717 0 0 0 
-0.252821 -0.128401 -0.406217 0 0 0 
-0.25096 -0.137343 -0.406625 0 0 0 
-0.248966 -0.146313 -0.407062 0 0 0 
-0.246718 -0.155324 -0.407554 0 0 0 
-0.244464 -0.164357 -0.408048 0 0 0 
-0.242613 -0.173373 -0.408453 0 0 0 
-0.240405 -0.182443 -0.408937 0 0 0 
-0.238166 -0.191536 -0.409427 0 0 0 
-0.235668 -0.20068 -0.409975 0 0 0 
-0.232341 -0.209942 -0.410703 0 0 0 
-0.232106 -0.218867 -0.410755 0 0 0 
-0.231386 -0.227855 -0.410913 0 0 0 
-0.228644 -0.23711 -0.411513 0 0 0 
-0.22432 -0.246601 -0.41246 0 0 0 
-0.215985 -0.256688 -0.414286 0 0 0 
-0.212284 0.273391 -0.42409 0 0 0 
-0.214498 0.264092 -0.423594 0 0 0 
-0.216859 0.254795 -0.423066 0 0 0 
-0.219232 0.245519 -0.422535 0 0 0 
-0.222163 0.236196 -0.421879 0 0 0 
-0.225028 0.226909 -0.421238 0 0 0 
-0.227798 0.21766 -0.420618 0 0 0 
-0.230559 0.208438 -0.42 0 0 0 
-0.233651 0.199208 -0.419308 0 0 0 
-0.236962 0.189986 -0.418567 0 0 0 
-0.240198 0.180802 -0.417843 0 0 0 
-0.243663 0.171629 -0.417067 0 0 0 
-0.247662 0.162442 -0.416172 0 0 0 
-0.251898 0.153275 -0.415224 0 0 0 
-0.256154 0.144146 -0.414272 0 0 0 
-0.262411 0.134915 -0.412871 0 0 0 
-0.272729 0.125473 -0.410562 0 0 0 
-0.274964 0.116629 -0.410062 0 0 0 
-0.275105 0.107926 -0.41003 0 0 0 
-0.273507 0.0993162 -0.410388 0 0 0 
-0.276538 0.0904704 -0.409709 0 0 0 
-0.278849 0.0816842 -0.409192 0 0 0 
-0.28137 0.0729121 -0.408628 0 0 0 
-0.282831 0.0641994 -0.408301 0 0 0 
-0.27938 0.0556408 -0.409073 0 0 0 
-0.281327 0.0469209 -0.408637 0 0 0 
-0.287607 0.038137 -0.407232 0 0 0 
-0.286784 0.0295144 -0.407416 0 0 0 
-0.284083 0.0209018 -0.408021 0 0 0 
-0.280462 0.0122679 -0.408831 0 0 0 
-0.279186 0.00359951 -0.409117 0 0 0 
-0.277171 -0.00508457 -0.409568 0 0 0 
-0.273668 -0.013802 -0.410352 0 0 0 
-0.267874 -0.0225855 -0.411648 0 0 0 
-0.268048 -0.0313106 -0.41161 0 0 0 
-0.267462 -0.040052 -0.411741 0 0 0 
-0.266329 -0.0488147 -0.411994 0 0 0 
-0.265847 -0.0575665 -0.412102 0 0 0 
-0.270016 -0.0661456 -0.411169 0 0 0 
-0.271408 -0.0748041 -0.410857 0 0 0 
-0.269563 -0.0836035 -0.41127 0 0 0 
-0.266758 -0.0924707 -0.411898 0 0 0 
-0.264362 -0.101341 -0.412434 0 0 0 
-0.262795 -0.110183 -0.412785 0 0 0 
-0.261464 -0.119025 -0.413083 0 0 0 
-0.259568 -0.127919 -0.413507 0 0 0 
-0.257394 -0.136852 -0.413994 0 0 0 
-0.255135 -0.145814 -0.4145 0 0 0 
-0.253046 -0.154782 -0.414967 0 0 0 
-0.251114 -0.163755 -0.415399 0 0 0 
-0.249119 -0.172754 -0.415846 0 0 0 
-0.246932 -0.18179 -0.416335 0 0 0 
-0.244296 -0.190894 -0.416925 0 0 0 
-0.24117 -0.200077 -0.417625 0 0 0 
-0.237658 -0.209334 -0.418411 0 0 0 
-0.234949 -0.218529 -0.419017 0 0 0 
-0.233005 -0.227654 -0.419452 0 0 0 
-0.23052 -0.236868 -0.420009 0 0 0 
-0.226381 -0.246327 -0.420935 0 0 0 
-0.222694 -0.255762 -0.42176 0 0 0 
-0.236842 0.269883 -0.42747 0 0 0 
-0.239588 0.260628 -0.426842 0 0 0 
-0.241956 0.251449 -0.426301 0 0 0 
-0.244308 0.242295 -0.425763 0 0 0 
-0.246655 0.233164 -0.425227 0 0 0 
-0.248318 0.224136 -0.424847 0 0 0 
-0.249841 0.215141 -0.424498 0 0 0 
-0.251378 0.206158 -0.424147 0 0 0 
-0.252752 0.197207 -0.423833 0 0 0 
-0.254144 0.188268 -0.423515 0 0 0 
-0.255429 0.179352 -0.423221 0 0 0 
-0.2567 0.170449 -0.422931 0 0 0 
-0.258236 0.161536 -0.42258 0 0 0 
-0.260203 0.152602 -0.42213 0 0 0 
-0.261755 0.143719 -0.421775 0 0 0 
-0.263865 0.134811 -0.421293 0 0 0 
-0.271061 0.125584 -0.419648 0 0 0 
-0.275378 0.116603 -0.418661 0 0 0 
-0.278048 0.107758 -0.418051 0 0 0 
-0.278824 0.0990377 -0.417874 0 0 0 
-0.281031 0.0902564 -0.417369 0 0 0 
-0.281415 0.0815743 -0.417282 0 0 0 
-0.280837 0.0729324 -0.417414 0 0 0 
-0.280089 0.0642907 -0.417585 0 0 0 
-0.284663 0.0554899 -0.416539 0 0 0 
-0.28876 0.0467439 -0.415603 0 0 0 
-0.292676 0.0380405 -0.414708 0 0 0 
-0.295441 0.0293907 -0.414076 0 0 0 
-0.295688 0.0207913 -0.414019 0 0 0 
-0.293995 0.0122035 -0.414406 0 0 0 
-0.292464 0.00359951 -0.414756 0 0 0 
-0.288378 -0.0050312 -0.41569 0 0 0 
-0.28165 -0.013726 -0.417228 0 0 0 
-0.277512 -0.0224478 -0.418174 0 0 0 
-0.274687 -0.0311841 -0.41882 0 0 0 
-0.272728 -0.0399266 -0.419267 0 0 0 
-0.273175 -0.0486191 -0.419165 0 0 0 
-0.276915 -0.0571975 -0.41831 0 0 0 
-0.277801 -0.0658491 -0.418108 0 0 0 
-0.276872 -0.07457 -0.41832 0 0 0 
-0.275125 -0.0833386 -0.418719 0 0 0 
-0.272629 -0.0921632 -0.41929 0 0 0 
-0.270413 -0.100996 -0.419796 0 0 0 
-0.268699 -0.109818 -0.420188 0 0 0 
-0.267089 -0.11865 -0.420556 0 0 0 
-0.265337 -0.127507 -0.420957 0 0 0 
-0.264211 -0.136333 -0.421214 0 0 0 
-0.263094 -0.145169 -0.421469 0 0 0 
-0.262483 -0.153973 -0.421609 0 0 0 
-0.261813 -0.162787 -0.421762 0 0 0 
-0.260713 -0.171649 -0.422013 0 0 0 
-0.259279 -0.180555 -0.422341 0 0 0 
-0.257513 -0.189509 -0.422745 0 0 0 
-0.255784 -0.198477 -0.42314 0 0 0 
-0.254311 -0.207431 -0.423477 0 0 0 
-0.252737 -0.216411 -0.423836 0 0 0 
-0.251795 -0.225328 -0.424052 0 0 0 
-0.25099 -0.234237 -0.424236 0 0 0 
-0.25014 -0.243159 -0.42443 0 0 0 
-0.249019 -0.252126 -0.424686 0 0 0 
-0.246095 0.268561 -0.434187 0 0 0 
-0.249605 0.259244 -0.433368 0 0 0 
-0.25298 0.249979 -0.43258 0 0 0 
-0.256297 0.240753 -0.431806 0 0 0 
-0.25958 0.231563 -0.43104 0 0 0 
-0.262432 0.222456 -0.430375 0 0 0 
-0.265221 0.213383 -0.429724 0 0 0 
-0.268003 0.204337 -0.429075 0 0 0 
-0.270456 0.195353 -0.428503 0 0 0 
-0.272623 0.18642 -0.427997 0 0 0 
-0.274822 0.177505 -0.427484 0 0 0 
-0.276502 0.168657 -0.427092 0 0 0 
-0.278179 0.159826 -0.426701 0 0 0 
-0.280065 0.150994 -0.42626 0 0 0 
-0.281639 0.142204 -0.425893 0 0 0 
-0.283208 0.133429 -0.425527 0 0 0 
-0.284588 0.124682 -0.425205 0 0 0 
-0.285685 0.115965 -0.424949 0 0 0 
-0.287037 0.107245 -0.424634 0 0 0 
-0.288607 0.0985252 -0.424267 0 0 0 
-0.290435 0.0898086 -0.423841 0 0 0 
-0.292525 0.0810981 -0.423353 0 0 0 
-0.295055 0.0723908 -0.422763 0 0 0 
-0.297572 0.063708 -0.422176 0 0 0 
-0.298837 0.0550849 -0.42188 0 0 0 
-0.29958 0.0464863 -0.421707 0 0 0 
-0.300503 0.0378914 -0.421492 0 0 0 
-0.301464 0.0293047 -0.421267 0 0 0 
-0.302038 0.0207308 -0.421134 0 0 0 
-0.30172 0.0121667 -0.421208 0 0 0 
-0.300195 0.00359951 -0.421563 0 0 0 
-0.296603 -0.00499203 -0.422402 0 0 0 
-0.29298 -0.0136181 -0.423247 0 0 0 
-0.291199 -0.0222523 -0.423663 0 0 0 
-0.289453 -0.0309028 -0.42407 0 0 0 
-0.289358 -0.0395307 -0.424092 0 0 0 
-0.290591 -0.0481215 -0.423804 0 0 0 
-0.290706 -0.0567379 -0.423778 0 0 0 
-0.290559 -0.0653631 -0.423812 0 0 0 
-0.290145 -0.0740011 -0.423909 0 0 0 
-0.289581 -0.0826502 -0.42404 0 0 0 
-0.288925 -0.0913096 -0.424193 0 0 0 
-0.288294 -0.0999738 -0.42434 0 0 0 
-0.287726 -0.10864 -0.424473 0 0 0 
-0.287224 -0.117307 -0.42459 0 0 0 
-0.286715 -0.12598 -0.424709 0 0 0 
-0.286183 -0.134659 -0.424833 0 0 0 
-0.285627 -0.143345 -0.424963 0 0 0 
-0.285011 -0.152042 -0.425107 0 0 0 
-0.28439 -0.160745 -0.425251 0 0 0 
-0.283753 -0.169455 -0.4254 0 0 0 
-0.282642 -0.178219 -0.425659 0 0 0 
-0.281401 -0.187007 -0.425949 0 0 0 
-0.280241 -0.195798 -0.426219 0 0 0 
-0.278966 -0.204613 -0.426517 0 0 0 
-0.277688 -0.213441 -0.426815 0 0 0 
-0.276012 -0.22233 -0.427206 0 0 0 
-0.27384 -0.231299 -0.427713 0 0 0 
-0.271663 -0.240289 -0.428221 0 0 0 
-0.268733 -0.249404 -0.428905 0 0 0 
-0.250376 0.26795 -0.442 0 0 0 
-0.253847 0.258659 -0.441173 0 0 0 
-0.257218 0.249414 -0.440371 0 0 0 
-0.260577 0.240203 -0.439571 0 0 0 
-0.263936 0.231024 -0.438771 0 0 0 
-0.266986 0.221914 -0.438045 0 0 0 
-0.269796 0.21286 -0.437376 0 0 0 
-0.272597 0.203834 -0.436709 0 0 0 
-0.275377 0.194837 -0.436047 0 0 0 
-0.278147 0.185867 -0.435387 0 0 0 
-0.280838 0.176932 -0.434747 0 0 0 
-0.283266 0.168045 -0.434169 0 0 0 
-0.285634 0.159187 -0.433605 0 0 0 
-0.287906 0.15036 -0.433064 0 0 0 
-0.290083 0.141561 -0.432546 0 0 0 
-0.292255 0.132783 -0.432029 0 0 0 
-0.294308 0.124034 -0.43154 0 0 0 
-0.296367 0.108584 -0.425597 0 0 0 
-0.298433 0.0998732 -0.425105 0 0 0 
-0.300354 0.0911897 -0.424648 0 0 0 
-0.302131 0.0825315 -0.424225 0 0 0 
-0.303884 0.0738911 -0.423807 0 0 0 
-0.305368 0.0652777 -0.423454 0 0 0 
-0.306539 0.0566889 -0.423175 0 0 0 
-0.307424 0.0481194 -0.422965 0 0 0 
-0.308372 0.0395568 -0.422739 0 0 0 
-0.309366 0.0310024 -0.422502 0 0 0 
-0.310321 0.022458 -0.422275 0 0 0 
-0.311191 0.0139235 -0.422068 0 0 0 
-0.31178 0.0053986 -0.421928 0 0 0 
-0.311873 -0.00312067 -0.421905 0 0 0 
-0.312175 -0.0116381 -0.421833 0 0 0 
-0.312232 -0.0201549 -0.42182 0 0 0 
-0.312012 -0.0286752 -0.421872 0 0 0 
-0.311886 -0.0371957 -0.421902 0 0 0 
-0.311548 -0.0457225 -0.421983 0 0 0 
-0.311358 -0.0542483 -0.422028 0 0 0 
-0.310979 -0.0627822 -0.422118 0 0 0 
-0.310573 -0.0713208 -0.422215 0 0 0 
-0.309985 -0.079871 -0.422355 0 0 0 
-0.30927 -0.0884328 -0.422525 0 0 0 
-0.308403 -0.0970095 -0.422732 0 0 0 
-0.307446 -0.105599 -0.422959 0 0 0 
-0.306487 -0.114199 -0.423188 0 0 0 
-0.305584 -0.122803 -0.423403 0 0 0 
-0.304535 -0.131427 -0.423653 0 0 0 
-0.303502 -0.14006 -0.423898 0 0 0 
-0.302479 -0.148701 -0.424142 0 0 0 
-0.301316 -0.157364 -0.424419 0 0 0 
-0.300009 -0.166052 -0.42473 0 0 0 
-0.298645 -0.174757 -0.425055 0 0 0 
-0.297279 -0.183475 -0.42538 0 0 0 
-0.295245 -0.192277 -0.425864 0 0 0 
-0.293002 -0.20112 -0.426398 0 0 0 
-0.290711 -0.209991 -0.426944 0 0 0 
-0.288218 -0.218907 -0.427538 0 0 0 
-0.285416 -0.227886 -0.428205 0 0 0 
-0.282605 -0.236892 -0.428874 0 0 0 
-0.279447 -0.245971 -0.429626 0 0 0 
-0.275873 -0.255138 -0.430477 0 0 0 
-0.252734 0.260892 -0.444786 0 0 0 
-0.256368 0.25159 -0.443904 0 0 0 
-0.259963 0.242328 -0.443031 0 0 0 
-0.263484 0.233109 -0.442176 0 0 0 
-0.26695 0.223931 -0.441334 0 0 0 
-0.269864 0.214851 -0.440626 0 0 0 
-0.272739 0.205803 -0.439928 0 0 0 
-0.275603 0.196785 -0.439233 0 0 0 
-0.278434 0.187797 -0.438545 0 0 0 
-0.281251 0.178837 -0.437861 0 0 0 
-0.283742 0.169935 -0.437256 0 0 0 
-0.286227 0.161057 -0.436653 0 0 0 
-0.288704 0.152204 -0.436051 0 0 0 
-0.291175 0.143375 -0.435451 0 0 0 
-0.293499 0.13458 -0.434886 0 0 0 
-0.29564 0.125821 -0.434366 0 0 0 
-0.297776 0.117083 -0.433848 0 0 0 
-0.299906 0.108365 -0.43333 0 0 0 
-0.301913 0.0996744 -0.432843 0 0 0 
-0.303832 0.0910075 -0.432377 0 0 0 
-0.305766 0.0823583 -0.431907 0 0 0 
-0.307439 0.0737388 -0.431501 0 0 0 
-0.309071 0.0651367 -0.431105 0 0 0 
-0.310479 0.0565575 -0.430763 0 0 0 
-0.311731 0.0479963 -0.430459 0 0 0 
-0.312831 0.0394506 -0.430192 0 0 0 
-0.313913 0.0309158 -0.429929 0 0 0 
-0.314971 0.0223915 -0.429672 0 0 0 
-0.315941 0.0138782 -0.429436 0 0 0 
-0.316974 0.00537386 -0.429185 0 0 0 
-0.317922 -0.00312067 -0.428955 0 0 0 
-0.318742 -0.0116068 -0.428756 0 0 0 
-0.319514 -0.0200855 -0.428569 0 0 0 
-0.320246 -0.0285575 -0.428391 0 0 0 
-0.320618 -0.0370294 -0.4283 0 0 0 
-0.320599 -0.045507 -0.428305 0 0 0 
-0.320471 -0.0539879 -0.428336 0 0 0 
-0.320008 -0.0624813 -0.428449 0 0 0 
-0.319441 -0.0709829 -0.428586 0 0 0 
-0.318603 -0.0795016 -0.42879 0 0 0 
-0.317847 -0.0880244 -0.428973 0 0 0 
-0.317024 -0.0965579 -0.429173 0 0 0 
-0.316007 -0.10511 -0.42942 0 0 0 
-0.31499 -0.113672 -0.429667 0 0 0 
-0.313953 -0.122245 -0.429919 0 0 0 
-0.3127 -0.130844 -0.430223 0 0 0 
-0.311385 -0.139459 -0.430543 0 0 0 
-0.310031 -0.14809 -0.430872 0 0 0 
-0.308502 -0.156748 -0.431243 0 0 0 
-0.306603 -0.165455 -0.431704 0 0 0 
-0.304701 -0.17418 -0.432166 0 0 0 
-0.302773 -0.182926 -0.432634 0 0 0 
-0.300603 -0.191715 -0.433161 0 0 0 
-0.298028 -0.20057 -0.433787 0 0 0 
-0.295446 -0.20945 -0.434414 0 0 0 
-0.29286 -0.218355 -0.435042 0 0 0 
-0.289836 -0.227338 -0.435776 0 0 0 
-0.286384 -0.236406 -0.436614 0 0 0 
-0.28291 -0.245509 -0.437458 0 0 0 
-0.279275 -0.254668 -0.438341 0 0 0 
-0.253902 0.260725 -0.453298 0 0 0 
-0.257665 0.251411 -0.452366 0 0 0 
-0.261413 0.242134 -0.451438 0 0 0 
-0.265146 0.232895 -0.450514 0 0 0 
-0.268666 0.223718 -0.449642 0 0 0 
-0.271631 0.214641 -0.448908 0 0 0 
-0.274586 0.205592 -0.448176 0 0 0 
-0.277532 0.196573 -0.447446 0 0 0 
-0.280469 0.187583 -0.446719 0 0 0 
-0.283232 0.178639 -0.446035 0 0 0 
-0.285765 0.169742 -0.445408 0 0 0 
-0.288303 0.160869 -0.44478 0 0 0 
-0.290839 0.152021 -0.444151 0 0 0 
-0.293369 0.143197 -0.443525 0 0 0 
-0.295667 0.134415 -0.442956 0 0 0 
-0.297892 0.12566 -0.442405 0 0 0 
-0.300064 0.11693 -0.441867 0 0 0 
-0.302241 0.10822 -0.441328 0 0 0 
-0.304238 0.0995415 -0.440834 0 0 0 
-0.306183 0.0908844 -0.440352 0 0 0 
-0.308125 0.082246 -0.439871 0 0 0 
-0.309819 0.0736368 -0.439452 0 0 0 
-0.311477 0.065045 -0.439041 0 0 0 
-0.31296 0.0564749 -0.438674 0 0 0 
-0.314324 0.0479222 -0.438336 0 0 0 
-0.315514 0.0393867 -0.438042 0 0 0 
-0.316644 0.0308637 -0.437762 0 0 0 
-0.31773 0.0223521 -0.437493 0 0 0 
-0.318854 0.0138505 -0.437214 0 0 0 
-0.319929 0.00535979 -0.436948 0 0 0 
-0.321043 -0.00312067 -0.436672 0 0 0 
-0.322219 -0.0115902 -0.436381 0 0 0 
-0.323311 -0.0200494 -0.436111 0 0 0 
-0.32416 -0.0285016 -0.435901 0 0 0 
-0.324644 -0.0369527 -0.435781 0 0 0 
-0.324675 -0.04541 -0.435773 0 0 0 
-0.324468 -0.0538737 -0.435824 0 0 0 
-0.324063 -0.0623461 -0.435925 0 0 0 
-0.32357 -0.0708256 -0.436047 0 0 0 
-0.322806 -0.0793215 -0.436236 0 0 0 
-0.322043 -0.0878246 -0.436425 0 0 0 
-0.321182 -0.0963401 -0.436638 0 0 0 
-0.320065 -0.104878 -0.436914 0 0 0 
-0.318921 -0.113429 -0.437198 0 0 0 
-0.317776 -0.121991 -0.437481 0 0 0 
-0.31632 -0.130585 -0.437842 0 0 0 
-0.314781 -0.1392 -0.438223 0 0 0 
-0.313241 -0.14783 -0.438604 0 0 0 
-0.311709 -0.156474 -0.438984 0 0 0 
-0.309688 -0.165176 -0.439484 0 0 0 
-0.307662 -0.173898 -0.439986 0 0 0 
-0.305624 -0.182641 -0.44049 0 0 0 
-0.303457 -0.191416 -0.441027 0 0 0 
-0.300746 -0.200272 -0.441698 0 0 0 
-0.298042 -0.209153 -0.442368 0 0 0 
-0.295311 -0.218063 -0.443044 0 0 0 
-0.29212 -0.227056 -0.443834 0 0 0 
-0.288565 -0.236126 -0.444714 0 0 0 
-0.285001 -0.245231 -0.445597 0 0 0 
-0.281351 -0.254381 -0.446501 0 0 0 
-0.253963 0.260717 -0.462077 0 0 0 
-0.257861 0.251384 -0.461094 0 0 0 
-0.261736 0.242091 -0.460115 0 0 0 
-0.265591 0.232838 -0.459143 0 0 0 
-0.269185 0.223654 -0.458235 0 0 0 
-0.272328 0.214558 -0.457442 0 0 0 
-0.275397 0.2055 -0.456668 0 0 0 
-0.278434 0.196475 -0.455901 0 0 0 
-0.281455 0.18748 -0.455139 0 0 0 
-0.284211 0.178541 -0.454443 0 0 0 
-0.286813 0.169642 -0.453787 0 0 0 
-0.289406 0.16077 -0.453132 0 0 0 
-0.291985 0.151923 -0.452481 0 0 0 
-0.294557 0.143101 -0.451832 0 0 0 
-0.296827 0.134327 -0.451259 0 0 0 
-0.299114 0.125573 -0.450682 0 0 0 
-0.301395 0.116841 -0.450106 0 0 0 
-0.303626 0.108135 -0.449543 0 0 0 
-0.305621 0.0994624 -0.44904 0 0 0 
-0.307596 0.0908104 -0.448541 0 0 0 
-0.309576 0.0821769 -0.448042 0 0 0 
-0.31132 0.0735724 -0.447601 0 0 0 
-0.313 0.064987 -0.447177 0 0 0 
-0.314551 0.0564218 -0.446786 0 0 0 
-0.315934 0.0478762 -0.446437 0 0 0 
-0.317219 0.0393461 -0.446113 0 0 0 
-0.318387 0.0308305 -0.445818 0 0 0 
-0.319546 0.0223262 -0.445525 0 0 0 
-0.320674 0.0138331 -0.445241 0 0 0 
-0.32178 0.00535098 -0.444962 0 0 0 
-0.322945 -0.00312067 -0.444667 0 0 0 
-0.324133 -0.0115811 -0.444368 0 0 0 
-0.325029 -0.020033 -0.444141 0 0 0 
-0.325769 -0.0284786 -0.443955 0 0 0 
-0.326083 -0.0369253 -0.443876 0 0 0 
-0.32627 -0.045372 -0.443828 0 0 0 
-0.32599 -0.0538303 -0.443899 0 0 0 
-0.325667 -0.0622926 -0.44398 0 0 0 
-0.32524 -0.070762 -0.444088 0 0 0 
-0.324489 -0.0792494 -0.444278 0 0 0 
-0.323733 -0.0877441 -0.444469 0 0 0 
-0.322849 -0.0962528 -0.444692 0 0 0 
-0.321704 -0.104785 -0.444981 0 0 0 
-0.320557 -0.113328 -0.44527 0 0 0 
-0.319454 -0.121879 -0.445548 0 0 0 
-0.31802 -0.130464 -0.44591 0 0 0 
-0.316478 -0.139071 -0.4463 0 0 0 
-0.314919 -0.147694 -0.446693 0 0 0 
-0.313356 -0.156332 -0.447087 0 0 0 
-0.311303 -0.16503 -0.447606 0 0 0 
-0.30923 -0.173749 -0.448129 0 0 0 
-0.307157 -0.182488 -0.448652 0 0 0 
-0.304996 -0.191255 -0.449198 0 0 0 
-0.302229 -0.20011 -0.449896 0 0 0 
-0.2994 -0.208998 -0.45061 0 0 0 
-0.296542 -0.217916 -0.451331 0 0 0 
-0.293323 -0.226907 -0.452144 0 0 0 
-0.289688 -0.235981 -0.453061 0 0 0 
-0.286035 -0.245093 -0.453983 0 0 0 
-0.282319 -0.254248 -0.454921 0 0 0 
-0.252792 0.260884 -0.471173 0 0 0 
-0.256808 0.251529 -0.47014 0 0 0 
-0.260808 0.242215 -0.469112 0 0 0 
-0.26479 0.232941 -0.468088 0 0 0 
-0.268519 0.223736 -0.467129 0 0 0 
-0.27174 0.214628 -0.466301 0 0 0 
-0.27497 0.205549 -0.46547 0 0 0 
-0.278187 0.196502 -0.464643 0 0 0 
-0.281325 0.187494 -0.463836 0 0 0 
-0.284129 0.178549 -0.463115 0 0 0 
-0.286773 0.169646 -0.462435 0 0 0 
-0.28941 0.160769 -0.461757 0 0 0 
-0.292058 0.151917 -0.461076 0 0 0 
-0.294697 0.14309 -0.460397 0 0 0 
-0.297023 0.134312 -0.459799 0 0 0 
-0.299343 0.125557 -0.459203 0 0 0 
-0.301658 0.116824 -0.458607 0 0 0 
-0.303957 0.108114 -0.458016 0 0 0 
-0.30604 0.0994385 -0.457481 0 0 0 
-0.308076 0.0907853 -0.456957 0 0 0 
-0.31008 0.0821529 -0.456442 0 0 0 
-0.311885 0.0735482 -0.455978 0 0 0 
-0.313591 0.0649645 -0.455539 0 0 0 
-0.315253 0.0563984 -0.455111 0 0 0 
-0.316659 0.0478555 -0.45475 0 0 0 
-0.318041 0.0393266 -0.454395 0 0 0 
-0.319229 0.0308145 -0.454089 0 0 0 
-0.320402 0.022314 -0.453788 0 0 0 
-0.321552 0.0138248 -0.453492 0 0 0 
-0.322668 0.00534675 -0.453205 0 0 0 
-0.323677 -0.00312067 -0.452945 0 0 0 
-0.324707 -0.0115784 -0.45268 0 0 0 
-0.325459 -0.0200289 -0.452487 0 0 0 
-0.325869 -0.0284772 -0.452382 0 0 0 
-0.326299 -0.0369212 -0.452271 0 0 0 
-0.326448 -0.0453677 -0.452233 0 0 0 
-0.326347 -0.05382 -0.452259 0 0 0 
-0.326161 -0.0622761 -0.452306 0 0 0 
-0.325606 -0.0707481 -0.452449 0 0 0 
-0.324921 -0.0792309 -0.452625 0 0 0 
-0.324302 -0.087717 -0.452785 0 0 0 
-0.323493 -0.0929385 -0.457541 0 0 0 
-0.322419 -0.101463 -0.457817 0 0 0 
-0.321315 -0.11 -0.458101 0 0 0 
-0.320198 -0.118549 -0.458388 0 0 0 
-0.31873 -0.127133 -0.458766 0 0 0 
-0.317162 -0.135738 -0.459169 0 0 0 
-0.315607 -0.144358 -0.459569 0 0 0 
-0.31405 -0.152992 -0.459969 0 0 0 
-0.311978 -0.161688 -0.460502 0 0 0 
-0.309861 -0.170408 -0.461046 0 0 0 
-0.307739 -0.179149 -0.461592 0 0 0 
-0.305512 -0.187921 -0.462164 0 0 0 
-0.302609 -0.196788 -0.462911 0 0 0 
-0.299696 -0.205683 -0.46366 0 0 0 
-0.296773 -0.214608 -0.464412 0 0 0 
-0.293468 -0.223608 -0.465261 0 0 0 
-0.289732 -0.232695 -0.466222 0 0 0 
-0.285984 -0.241819 -0.467186 0 0 0 
-0.282152 -0.25099 -0.468171 0 0 0 
-0.24858 0.264766 -0.485624 0 0 0 
-0.253348 0.255287 -0.484376 0 0 0 
-0.258091 0.245858 -0.483133 0 0 0 
-0.262576 0.236506 -0.481959 0 0 0 
-0.266554 0.22726 -0.480917 0 0 0 
-0.269883 0.218129 -0.480045 0 0 0 
-0.273199 0.209031 -0.479177 0 0 0 
-0.276498 0.199967 -0.478313 0 0 0 
-0.279782 0.190936 -0.477452 0 0 0 
-0.282777 0.181964 -0.476668 0 0 0 
-0.285581 0.17304 -0.475934 0 0 0 
-0.288299 0.16415 -0.475222 0 0 0 
-0.290995 0.155288 -0.474516 0 0 0 
-0.293682 0.146452 -0.473812 0 0 0 
-0.296058 0.137666 -0.47319 0 0 0 
-0.298381 0.128906 -0.472581 0 0 0 
-0.300734 0.120166 -0.471965 0 0 0 
-0.303098 0.111448 -0.471346 0 0 0 
-0.305286 0.102762 -0.470773 0 0 0 
-0.307366 0.0941028 -0.470228 0 0 0 
-0.309442 0.0854637 -0.469684 0 0 0 
-0.311413 0.0768488 -0.469168 0 0 0 
-0.313187 0.0682602 -0.468704 0 0 0 
-0.314936 0.0596894 -0.468245 0 0 0 
-0.316487 0.0511408 -0.467839 0 0 0 
-0.317943 0.0426093 -0.467458 0 0 0 
-0.319239 0.0340947 -0.467119 0 0 0 
-0.320434 0.0255939 -0.466806 0 0 0 
-0.321588 0.0171049 -0.466503 0 0 0 
-0.322721 0.00862692 -0.466207 0 0 0 
-0.323581 0.000159764 -0.465981 0 0 0 
-0.324429 -0.00829926 -0.465759 0 0 0 
-0.324984 -0.016753 -0.465614 0 0 0 
-0.32546 -0.0252026 -0.465489 0 0 0 
-0.325905 -0.0336482 -0.465373 0 0 0 
-0.325854 -0.0421014 -0.465386 0 0 0 
-0.32585 -0.0505538 -0.465387 0 0 0 
-0.325847 -0.0590061 -0.465388 0 0 0 
-0.32529 -0.0674796 -0.465534 0 0 0 
-0.324729 -0.0759586 -0.465681 0 0 0 
-0.324129 -0.0844448 -0.465838 0 0 0 
-0.323265 -0.0929505 -0.466064 0 0 0 
-0.322181 -0.101477 -0.466348 0 0 0 
-0.321119 -0.110012 -0.466626 0 0 0 
-0.320056 -0.118558 -0.466904 0 0 0 
-0.318586 -0.127143 -0.46729 0 0 0 
-0.317008 -0.13575 -0.467703 0 0 0 
-0.315428 -0.144372 -0.468117 0 0 0 
-0.313842 -0.15301 -0.468532 0 0 0 
-0.311702 -0.161713 -0.469093 0 0 0 
-0.309476 -0.170445 -0.469676 0 0 0 
-0.307244 -0.179198 -0.47026 0 0 0 
-0.30491 -0.187984 -0.470871 0 0 0 
-0.301924 -0.196863 -0.471653 0 0 0 
-0.298929 -0.205771 -0.472438 0 0 0 
-0.295924 -0.214709 -0.473225 0 0 0 
-0.292475 -0.223731 -0.474128 0 0 0 
-0.288625 -0.232837 -0.475137 0 0 0 
-0.284721 -0.241987 -0.476159 0 0 0 
-0.28053 -0.251214 -0.477257 0 0 0 
-0.254833 0.228711 -0.492777 0 0 0 
-0.262102 0.219055 -0.490839 0 0 0 
-0.267269 0.209709 -0.489461 0 0 0 
-0.271978 0.200462 -0.488205 0 0 0 
-0.275688 0.191364 -0.487216 0 0 0 
-0.279261 0.182316 -0.486263 0 0 0 
-0.282216 0.173361 -0.485475 0 0 0 
-0.285162 0.164434 -0.48469 0 0 0 
-0.288098 0.155536 -0.483907 0 0 0 
-0.291027 0.146667 -0.483126 0 0 0 
-0.293716 0.137844 -0.482408 0 0 0 
-0.296134 0.129066 -0.481763 0 0 0 
-0.298496 0.120315 -0.481134 0 0 0 
-0.300852 0.111587 -0.480505 0 0 0 
-0.303178 0.102882 -0.479885 0 0 0 
-0.305193 0.0942166 -0.479348 0 0 0 
-0.307203 0.0855703 -0.478812 0 0 0 
-0.309307 0.0769391 -0.478251 0 0 0 
-0.311295 0.0683323 -0.477721 0 0 0 
-0.313067 0.0597517 -0.477248 0 0 0 
-0.31481 0.0511887 -0.476783 0 0 0 
-0.316419 0.0426456 -0.476354 0 0 0 
-0.317872 0.0341207 -0.475967 0 0 0 
-0.319303 0.0256101 -0.475585 0 0 0 
-0.320459 0.0171156 -0.475277 0 0 0 
-0.321413 0.00863315 -0.475022 0 0 0 
-0.322361 0.000159764 -0.47477 0 0 0 
-0.323143 -0.00830538 -0.474561 0 0 0 
-0.323734 -0.0167649 -0.474404 0 0 0 
-0.324264 -0.0252197 -0.474262 0 0 0 
-0.32454 -0.0336742 -0.474189 0 0 0 
-0.324614 -0.042131 -0.474169 0 0 0 
-0.324688 -0.050587 -0.474149 0 0 0 
-0.324578 -0.0590484 -0.474178 0 0 0 
-0.324047 -0.067527 -0.47432 0 0 0 
-0.323532 -0.0760099 -0.474457 0 0 0 
-0.323017 -0.0844977 -0.474595 0 0 0 
-0.322153 -0.0930087 -0.474825 0 0 0 
-0.321098 -0.101539 -0.475107 0 0 0 
-0.320042 -0.110079 -0.475388 0 0 0 
-0.318984 -0.11863 -0.47567 0 0 0 
-0.317432 -0.127225 -0.476084 0 0 0 
-0.315781 -0.135844 -0.476524 0 0 0 
-0.314126 -0.144478 -0.476966 0 0 0 
-0.312469 -0.153128 -0.477408 0 0 0 
-0.310176 -0.161851 -0.478019 0 0 0 
-0.307876 -0.170597 -0.478632 0 0 0 
-0.30557 -0.179366 -0.479247 0 0 0 
-0.303085 -0.188175 -0.47991 0 0 0 
-0.299996 -0.197074 -0.480734 0 0 0 
-0.296896 -0.206003 -0.48156 0 0 0 
-0.293782 -0.214964 -0.482391 0 0 0 
-0.289749 -0.224069 -0.483466 0 0 0 
-0.285382 -0.233254 -0.484631 0 0 0 
-0.280993 -0.242484 -0.485801 0 0 0 
-0.275863 -0.251859 -0.487169 0 0 0 
-0.280193 0.147544 -0.494684 0 0 0 
-0.285412 0.138477 -0.493268 0 0 0 
-0.289793 0.129519 -0.492078 0 0 0 
-0.292498 0.120715 -0.491344 0 0 0 
-0.295195 0.111937 -0.490612 0 0 0 
-0.297883 0.103185 -0.489883 0 0 0 
-0.300419 0.0944667 -0.489194 0 0 0 
-0.302567 0.0857911 -0.488611 0 0 0 
-0.30477 0.0771335 -0.488013 0 0 0 
-0.306968 0.0684971 -0.487417 0 0 0 
-0.309116 0.0598834 -0.486834 0 0 0 
-0.310748 0.0513048 -0.486391 0 0 0 
-0.312376 0.0427419 -0.485949 0 0 0 
-0.314002 0.0341945 -0.485508 0 0 0 
-0.315641 0.0256624 -0.485063 0 0 0 
-0.316923 0.0171493 -0.484715 0 0 0 
-0.317759 0.00865055 -0.484488 0 0 0 
-0.318604 0.000159764 -0.484258 0 0 0 
-0.319449 -0.00832298 -0.484029 0 0 0 
-0.320292 -0.0167977 -0.4838 0 0 0 
-0.320801 -0.0252691 -0.483662 0 0 0 
-0.321135 -0.0337391 -0.483571 0 0 0 
-0.321392 -0.0422077 -0.483502 0 0 0 
-0.321649 -0.0506738 -0.483432 0 0 0 
-0.321365 -0.0591555 -0.483509 0 0 0 
-0.320924 -0.0676459 -0.483629 0 0 0 
-0.320491 -0.0761402 -0.483746 0 0 0 
-0.320151 -0.0846342 -0.483838 0 0 0 
-0.319225 -0.0931621 -0.48409 0 0 0 
-0.31818 -0.101706 -0.484373 0 0 0 
-0.317096 -0.110262 -0.484668 0 0 0 
-0.316009 -0.118828 -0.484963 0 0 0 
-0.314295 -0.127449 -0.485428 0 0 0 
-0.312572 -0.136088 -0.485896 0 0 0 
-0.310899 -0.144739 -0.48635 0 0 0 
-0.309145 -0.153413 -0.486826 0 0 0 
-0.30671 -0.162165 -0.487487 0 0 0 
-0.304203 -0.170947 -0.488167 0 0 0 
-0.301381 -0.179785 -0.488933 0 0 0 
-0.29797 -0.188711 -0.489859 0 0 0 
-0.294063 -0.197724 -0.490919 0 0 0 
-0.290141 -0.206775 -0.491984 0 0 0 
-0.282382 -0.216321 -0.49409 0 0 0 
-0.305847 -0.0169353 -0.496269 0 0 0 
-0.30642 -0.0254746 -0.49611 0 0 0 
-0.306992 -0.0340085 -0.495952 0 0 0 
-0.307608 -0.0425359 -0.495782 0 0 0 
-0.30812 -0.0510604 -0.495641 0 0 0 
-0.307768 -0.0596088 -0.495738 0 0 0 
-0.307396 -0.0681613 -0.495841 0 0 0 
-0.307025 -0.0767174 -0.495943 0 0 0 
-0.306653 -0.0852769 -0.496046 0 0 0 
-0.305403 -0.0938861 -0.496391 0 0 0 
-0.000822321 0.360348 0.471692 0 0 0 
-0.00906268 0.366245 0.470091 0 0 0 
-0.0172913 0.367475 0.469757 0 0 0 
-0.0255252 0.367518 0.469746 0 0 0 
-0.0337975 0.365524 0.470287 0 0 0 
-0.0421762 0.359856 0.471825 0 0 0 
-0.0509009 0.343969 0.476137 0 0 0 
0.0428354 0.263095 0.489357 0 0 0 
0.0341948 0.258321 0.49063 0 0 0 
0.0255014 0.254059 0.491767 0 0 0 
0.0156775 0.364236 0.462387 0 0 0 
0.00736265 0.377877 0.458749 0 0 0 
-0.000822321 0.382766 0.457445 0 0 0 
-0.00897893 0.383832 0.457161 0 0 0 
-0.0171325 0.384149 0.457076 0 0 0 
-0.0252914 0.383883 0.457147 0 0 0 
-0.0334668 0.382882 0.457414 0 0 0 
-0.0416875 0.380381 0.458081 0 0 0 
-0.0499935 0.37573 0.459321 0 0 0 
-0.0584324 0.368418 0.461271 0 0 0 
-0.0672283 0.353561 0.465233 0 0 0 
0.0682717 0.283001 0.475412 0 0 0 
0.0598655 0.276085 0.477224 0 0 0 
0.0513835 0.269516 0.478944 0 0 0 
0.0428245 0.263554 0.480506 0 0 0 
0.0323335 0.356041 0.456283 0 0 0 
0.0237871 0.374059 0.451564 0 0 0 
0.0154963 0.383261 0.449154 0 0 0 
0.00730796 0.389361 0.447556 0 0 0 
-0.000822321 0.391758 0.446928 0 0 0 
-0.00893737 0.39256 0.446718 0 0 0 
-0.0170497 0.392847 0.446643 0 0 0 
-0.0251655 0.392695 0.446683 0 0 0 
-0.0332958 0.391861 0.446901 0 0 0 
-0.041455 0.390149 0.44735 0 0 0 
-0.049655 0.387578 0.448023 0 0 0 
-0.0579194 0.383807 0.449011 0 0 0 
-0.0662853 0.378315 0.450449 0 0 0 
-0.0750032 0.365833 0.453718 0 0 0 
0.0764612 0.293438 0.464092 0 0 0 
0.0682036 0.284791 0.466315 0 0 0 
0.0598356 0.276983 0.468323 0 0 0 
0.0513671 0.27009 0.470096 0 0 0 
0.040559 0.358704 0.447309 0 0 0 
0.031945 0.376435 0.44275 0 0 0 
0.023625 0.38541 0.440442 0 0 0 
0.0154133 0.391977 0.438753 0 0 0 
0.00727877 0.39549 0.43785 0 0 0 
-0.000822321 0.397268 0.437393 0 0 0 
-0.00891068 0.398164 0.437162 0 0 0 
-0.0169933 0.398765 0.437008 0 0 0 
-0.0250797 0.398701 0.437024 0 0 0 
-0.0331795 0.397966 0.437213 0 0 0 
-0.0413022 0.396564 0.437574 0 0 0 
-0.0494526 0.394661 0.438063 0 0 0 
-0.0576455 0.392023 0.438741 0 0 0 
-0.065894 0.388587 0.439625 0 0 0 
-0.0743439 0.381217 0.44152 0 0 0 
-0.0833201 0.364266 0.445879 0 0 0 
-0.0975216 0.250643 0.475096 0 0 0 
0.0844387 0.306238 0.452274 0 0 0 
0.0763653 0.295675 0.45494 0 0 0 
0.0681418 0.286411 0.457278 0 0 0 
0.0597891 0.278379 0.459305 0 0 0 
0.0489766 0.353756 0.440282 0 0 0 
0.0402259 0.372695 0.435502 0 0 0 
0.0317953 0.384294 0.432574 0 0 0 
0.0235353 0.391689 0.430708 0 0 0 
0.0153678 0.396759 0.429428 0 0 0 
0.00725926 0.399588 0.428714 0 0 0 
-0.000822321 0.401251 0.428295 0 0 0 
-0.00889054 0.402394 0.428006 0 0 0 
-0.0169526 0.403044 0.427842 0 0 0 
-0.0250165 0.403124 0.427822 0 0 0 
-0.0330935 0.402481 0.427984 0 0 0 
-0.041191 0.401235 0.428299 0 0 0 
-0.0493139 0.399513 0.428733 0 0 0 
-0.0574654 0.397426 0.42926 0 0 0 
-0.0656691 0.394491 0.430001 0 0 0 
-0.0740246 0.388667 0.431471 0 0 0 
-0.0826947 0.3774 0.434314 0 0 0 
-0.0918025 0.359826 0.43875 0 0 0 
-0.106031 0.255562 0.465064 0 0 0 
-0.114526 0.259972 0.463951 0 0 0 
0.0920833 0.32637 0.435027 0 0 0 
0.0842938 0.312587 0.43844 0 0 0 
0.0762716 0.301169 0.441267 0 0 0 
0.0680615 0.291832 0.443579 0 0 0 
0.0597065 0.284174 0.445475 0 0 0 
0.048627 0.369316 0.424393 0 0 0 
0.0400646 0.3828 0.421054 0 0 0 
0.0317112 0.392054 0.418762 0 0 0 
0.0234853 0.39855 0.417154 0 0 0 
0.0153421 0.402867 0.416085 0 0 0 
0.00724676 0.40575 0.415371 0 0 0 
-0.0008211 0.407551 0.414925 0 0 0 
-0.00887406 0.40888 0.414596 0 0 0 
-0.0169199 0.409622 0.414412 0 0 0 
-0.0249663 0.409834 0.41436 0 0 0 
-0.0330262 0.409233 0.414508 0 0 0 
-0.0411063 0.408023 0.414808 0 0 0 
-0.0492111 0.406349 0.415223 0 0 0 
-0.057343 0.404343 0.415719 0 0 0 
-0.0655215 0.401615 0.416395 0 0 0 
-0.0738041 0.397064 0.417522 0 0 0 
-0.0822865 0.389228 0.419462 0 0 0 
-0.0910375 0.377687 0.42232 0 0 0 
-0.100667 0.352691 0.428509 0 0 0 
-0.114408 0.265135 0.45019 0 0 0 
-0.122783 0.270565 0.448845 0 0 0 
0.0917838 0.332088 0.425193 0 0 0 
0.084116 0.31632 0.429022 0 0 0 
0.0761263 0.30456 0.431878 0 0 0 
0.0678979 0.296127 0.433926 0 0 0 
0.0572852 0.35681 0.419188 0 0 0 
0.0484484 0.375568 0.414633 0 0 0 
0.0399675 0.386881 0.411886 0 0 0 
0.0316574 0.39488 0.409943 0 0 0 
0.0234563 0.40058 0.408559 0 0 0 
0.0153241 0.404754 0.407545 0 0 0 
0.00723783 0.407625 0.406848 0 0 0 
-0.0008211 0.409659 0.406354 0 0 0 
-0.00886348 0.411099 0.406004 0 0 0 
-0.0168972 0.412012 0.405782 0 0 0 
-0.0249313 0.412284 0.405716 0 0 0 
-0.032979 0.411709 0.405856 0 0 0 
-0.041047 0.41051 0.406147 0 0 0 
-0.0491411 0.4088 0.406562 0 0 0 
-0.0572603 0.406823 0.407042 0 0 0 
-0.0654265 0.404109 0.407702 0 0 0 
-0.073679 0.399982 0.408704 0 0 0 
-0.0820836 0.393487 0.410281 0 0 0 
-0.0907038 0.384057 0.412571 0 0 0 
-0.0997884 0.368073 0.416453 0 0 0 
-0.114268 0.26739 0.440905 0 0 0 
-0.122604 0.273263 0.439478 0 0 0 
-0.130855 0.279532 0.437956 0 0 0 
0.091379 0.339816 0.414934 0 0 0 
0.0838775 0.321329 0.419335 0 0 0 
0.0758818 0.310266 0.421969 0 0 0 
0.0675679 0.304789 0.423274 0 0 0 
0.0570617 0.363516 0.409291 0 0 0 
0.0483444 0.379208 0.405555 0 0 0 
0.0399066 0.389436 0.40312 0 0 0 
0.0316274 0.396453 0.401449 0 0 0 
0.0234377 0.401881 0.400156 0 0 0 
0.015315 0.405706 0.399246 0 0 0 
0.00723278 0.408686 0.398536 0 0 0 
-0.0008211 0.410872 0.398016 0 0 0 
-0.00885697 0.412468 0.397636 0 0 0 
-0.0168838 0.413415 0.39741 0 0 0 
-0.0249113 0.413684 0.397346 0 0 0 
-0.0329511 0.413177 0.397467 0 0 0 
-0.0410122 0.411972 0.397754 0 0 0 
-0.0490976 0.410323 0.398146 0 0 0 
-0.0572144 0.408201 0.398652 0 0 0 
-0.0653789 0.405358 0.399328 0 0 0 
-0.0736214 0.401326 0.400289 0 0 0 
-0.0819986 0.395272 0.40173 0 0 0 
-0.0905619 0.386766 0.403755 0 0 0 
-0.0994463 0.374058 0.406781 0 0 0 
-0.109117 0.350611 0.412364 0 0 0 
-0.1224 0.276324 0.430051 0 0 0 
-0.130589 0.283249 0.428402 0 0 0 
-0.138667 0.290769 0.426612 0 0 0 
0.0907288 0.35223 0.403655 0 0 0 
0.0835252 0.328727 0.409139 0 0 0 
0.0754829 0.319573 0.411275 0 0 0 
0.0665956 0.330312 0.40877 0 0 0 
0.0569676 0.366339 0.400363 0 0 0 
0.0482916 0.381056 0.396929 0 0 0 
0.0398813 0.390501 0.394726 0 0 0 
0.0316111 0.397308 0.393137 0 0 0 
0.0234323 0.402263 0.391981 0 0 0 
0.0153118 0.40605 0.391097 0 0 0 
0.00723114 0.40903 0.390402 0 0 0 
-0.0008211 0.411252 0.389884 0 0 0 
-0.00885497 0.412887 0.389502 0 0 0 
-0.0168793 0.413891 0.389268 0 0 0 
-0.0249042 0.414183 0.3892 0 0 0 
-0.0329408 0.413714 0.389309 0 0 0 
-0.0409987 0.41254 0.389583 0 0 0 
-0.0490831 0.410831 0.389982 0 0 0 
-0.0571983 0.408683 0.390483 0 0 0 
-0.0653658 0.405701 0.391179 0 0 0 
-0.0736078 0.401643 0.392126 0 0 0 
-0.0819705 0.395864 0.393474 0 0 0 
-0.0904987 0.387973 0.395315 0 0 0 
-0.0992947 0.376713 0.397943 0 0 0 
-0.108622 0.358595 0.40217 0 0 0 
-0.122112 0.280636 0.420361 0 0 0 
-0.130279 0.287588 0.418738 0 0 0 
-0.138283 0.295815 0.416819 0 0 0 
-0.146174 0.304465 0.4148 0 0 0 
0.0893892 0.377804 0.389487 0 0 0 
0.0830025 0.343004 0.403643 0 0 0 
0.0749582 0.335118 0.405446 0 0 0 
0.0660419 0.34815 0.402467 0 0 0 
0.0569291 0.370801 0.397289 0 0 0 
0.0482831 0.384664 0.394121 0 0 0 
0.0398769 0.394003 0.391986 0 0 0 
0.0316154 0.40041 0.390522 0 0 0 
0.0234369 0.405288 0.389407 0 0 0 
0.0153162 0.408958 0.388568 0 0 0 
0.00723401 0.411899 0.387895 0 0 0 
-0.000820185 0.414163 0.387378 0 0 0 
-0.00885563 0.415836 0.386996 0 0 0 
-0.0168813 0.416862 0.386761 0 0 0 
-0.0249078 0.417148 0.386696 0 0 0 
-0.0329457 0.416689 0.386801 0 0 0 
-0.0410047 0.41553 0.387066 0 0 0 
-0.0490898 0.413845 0.387451 0 0 0 
-0.0572091 0.411612 0.387961 0 0 0 
-0.0653796 0.408596 0.38865 0 0 0 
-0.0736241 0.404523 0.389582 0 0 0 
-0.0819844 0.398831 0.390882 0 0 0 
-0.0904935 0.391335 0.392596 0 0 0 
-0.0992591 0.380599 0.39505 0 0 0 
-0.108445 0.364725 0.398678 0 0 0 
-0.121715 0.289856 0.415791 0 0 0 
-0.129895 0.296226 0.414335 0 0 0 
-0.13784 0.30489 0.412355 0 0 0 
-0.14559 0.314953 0.410055 0 0 0 
0.0894006 0.380883 0.386783 0 0 0 
0.0821097 0.361752 0.391065 0 0 0 
0.074428 0.347489 0.394257 0 0 0 
0.0658196 0.353986 0.392803 0 0 0 
0.0569226 0.370995 0.388996 0 0 0 
0.0483019 0.384006 0.386084 0 0 0 
0.0399006 0.393008 0.384069 0 0 0 
0.0316329 0.399493 0.382618 0 0 0 
0.0234519 0.404237 0.381556 0 0 0 
0.0153267 0.407858 0.380746 0 0 0 
0.00723892 0.410868 0.380072 0 0 0 
-0.000820185 0.413156 0.37956 0 0 0 
-0.00886036 0.414844 0.379182 0 0 0 
-0.0168907 0.415873 0.378952 0 0 0 
-0.0249223 0.416133 0.378894 0 0 0 
-0.0329653 0.415663 0.378999 0 0 0 
-0.0410286 0.414526 0.379253 0 0 0 
-0.0491186 0.412835 0.379632 0 0 0 
-0.0572434 0.410585 0.380135 0 0 0 
-0.0654194 0.407551 0.380815 0 0 0 
-0.0736669 0.403523 0.381716 0 0 0 
-0.0820296 0.397883 0.382978 0 0 0 
-0.0905434 0.390383 0.384657 0 0 0 
-0.0993006 0.379873 0.387009 0 0 0 
-0.10847 0.364315 0.390491 0 0 0 
-0.121135 0.298558 0.405208 0 0 0 
-0.12941 0.303026 0.404208 0 0 0 
-0.137308 0.311873 0.402228 0 0 0 
-0.144894 0.323542 0.399617 0 0 0 
0.080461 0.396376 0.375187 0 0 0 
0.0738431 0.361138 0.382906 0 0 0 
0.0655791 0.3603 0.38309 0 0 0 
0.0569301 0.370772 0.380796 0 0 0 
0.0483385 0.382726 0.378177 0 0 0 
0.0399382 0.391428 0.376271 0 0 0 
0.0316661 0.397748 0.374887 0 0 0 
0.0234776 0.402433 0.373861 0 0 0 
0.0153429 0.406158 0.373045 0 0 0 
0.0072467 0.409235 0.372371 0 0 0 
-0.000820185 0.411562 0.371861 0 0 0 
-0.00886785 0.41327 0.371487 0 0 0 
-0.0169059 0.414284 0.371265 0 0 0 
-0.0249456 0.414501 0.371217 0 0 0 
-0.0329972 0.413985 0.37133 0 0 0 
-0.0410692 0.412821 0.371585 0 0 0 
-0.0491674 0.411127 0.371956 0 0 0 
-0.0573006 0.408868 0.372451 0 0 0 
-0.0654838 0.405861 0.37311 0 0 0 
-0.0737426 0.401758 0.374009 0 0 0 
-0.0821191 0.396002 0.375269 0 0 0 
-0.0906529 0.388292 0.376958 0 0 0 
-0.099433 0.377555 0.37931 0 0 0 
-0.108691 0.360757 0.38299 0 0 0 
-0.120367 0.310078 0.394091 0 0 0 
-0.12879 0.311708 0.393734 0 0 0 
-0.136645 0.320578 0.391791 0 0 0 
-0.143974 0.334904 0.388653 0 0 0 
0.0720138 0.403821 0.365464 0 0 0 
0.0652081 0.370037 0.372703 0 0 0 
0.0568884 0.372022 0.372278 0 0 0 
0.0483914 0.380876 0.370381 0 0 0 
0.0399904 0.389235 0.368589 0 0 0 
0.0317102 0.395433 0.367261 0 0 0 
0.0235099 0.400174 0.366245 0 0 0 
0.015364 0.403941 0.365438 0 0 0 
0.00725735 0.406998 0.364783 0 0 0 
-0.000820185 0.409365 0.364276 0 0 0 
-0.00887835 0.411065 0.363912 0 0 0 
-0.0169274 0.412027 0.363706 0 0 0 
-0.0249786 0.412189 0.363671 0 0 0 
-0.0330421 0.41163 0.363791 0 0 0 
-0.0411256 0.410453 0.364043 0 0 0 
-0.0492356 0.408742 0.36441 0 0 0 
-0.0573806 0.406467 0.364897 0 0 0 
-0.0655781 0.403385 0.365557 0 0 0 
-0.0738565 0.399099 0.366476 0 0 0 
-0.0822601 0.393042 0.367774 0 0 0 
-0.090836 0.384797 0.369541 0 0 0 
-0.0996743 0.373333 0.371997 0 0 0 
-0.109022 0.355397 0.375841 0 0 0 
-0.119487 0.323285 0.382722 0 0 0 
-0.128032 0.322321 0.382928 0 0 0 
-0.135762 0.332165 0.380819 0 0 0 
-0.142554 0.352456 0.376471 0 0 0 
0.0637756 0.407641 0.356571 0 0 0 
0.0553589 0.417907 0.35442 0 0 0 
0.0483971 0.380677 0.362221 0 0 0 
0.0400439 0.386989 0.360898 0 0 0 
0.0317572 0.392969 0.359645 0 0 0 
0.0235467 0.397595 0.358676 0 0 0 
0.0153882 0.401398 0.357879 0 0 0 
0.00726967 0.404411 0.357248 0 0 0 
-0.000820185 0.406764 0.356755 0 0 0 
-0.00889093 0.408424 0.356407 0 0 0 
-0.0169535 0.409283 0.356227 0 0 0 
-0.0250195 0.409328 0.356217 0 0 0 
-0.0330983 0.408681 0.356353 0 0 0 
-0.0411975 0.407432 0.356615 0 0 0 
-0.0493239 0.405649 0.356988 0 0 0 
-0.0574872 0.403271 0.357487 0 0 0 
-0.0657052 0.400049 0.358162 0 0 0 
-0.0740178 0.395337 0.359149 0 0 0 
-0.082454 0.388969 0.360483 0 0 0 
-0.0910838 0.380065 0.362349 0 0 0 
-0.0999953 0.367716 0.364936 0 0 0 
-0.109303 0.350864 0.368467 0 0 0 
-0.118673 0.335486 0.371689 0 0 0 
-0.12708 0.328916 0.367109 0 0 0 
-0.134192 0.346038 0.363522 0 0 0 
-0.141425 0.359665 0.360667 0 0 0 
0.0556933 0.401183 0.343894 0 0 0 
0.0473062 0.412169 0.341645 0 0 0 
0.0391245 0.418923 0.340262 0 0 0 
0.0317911 0.384515 0.347307 0 0 0 
0.0235802 0.3886 0.346471 0 0 0 
0.0154125 0.392229 0.345728 0 0 0 
0.00728266 0.395155 0.345129 0 0 0 
-0.000819269 0.397412 0.344667 0 0 0 
-0.00890328 0.398918 0.344358 0 0 0 
-0.0169808 0.399597 0.344219 0 0 0 
-0.0250633 0.399478 0.344243 0 0 0 
-0.0331602 0.398663 0.34441 0 0 0 
-0.041279 0.397253 0.344699 0 0 0 
-0.0494264 0.395311 0.345097 0 0 0 
-0.0576132 0.392742 0.345623 0 0 0 
-0.0658638 0.389142 0.34636 0 0 0 
-0.0742104 0.384099 0.347392 0 0 0 
-0.0826947 0.377176 0.34881 0 0 0 
-0.0913617 0.368022 0.350684 0 0 0 
-0.100245 0.356615 0.35302 0 0 0 
-0.109214 0.345575 0.355281 0 0 0 
-0.11786 0.340946 0.356229 0 0 0 
-0.125346 0.353186 0.353722 0 0 0 
-0.132124 0.373188 0.349627 0 0 0 
0.0575741 0.344761 0.347106 0 0 0 
0.048934 0.355196 0.345019 0 0 0 
0.0393529 0.409331 0.334192 0 0 0 
0.0311705 0.417097 0.332638 0 0 0 
0.0230951 0.422555 0.331547 0 0 0 
0.015091 0.425983 0.330861 0 0 0 
0.00729083 0.393441 0.33737 0 0 0 
-0.000819269 0.395127 0.337032 0 0 0 
-0.00891533 0.396387 0.33678 0 0 0 
-0.0170074 0.396807 0.336696 0 0 0 
-0.0251069 0.396429 0.336772 0 0 0 
-0.0332222 0.395405 0.336977 0 0 0 
-0.0413639 0.393685 0.337321 0 0 0 
-0.0495353 0.391501 0.337758 0 0 0 
-0.0577555 0.388473 0.338363 0 0 0 
-0.066042 0.384463 0.339165 0 0 0 
-0.0744287 0.379006 0.340256 0 0 0 
-0.0829351 0.372127 0.341632 0 0 0 
-0.0915402 0.364615 0.343135 0 0 0 
-0.100141 0.358422 0.344373 0 0 0 
-0.108549 0.356305 0.344797 0 0 0 
-0.114427 0.392446 0.337569 0 0 0 
-0.123677 0.376546 0.340749 0 0 0 
0.0579088 0.334718 0.340724 0 0 0 
0.0491206 0.348664 0.338002 0 0 0 
0.040536 0.35964 0.335859 0 0 0 
0.0320718 0.369781 0.333879 0 0 0 
0.0232602 0.410999 0.325832 0 0 0 
0.0151687 0.417826 0.324499 0 0 0 
0.00715454 0.42206 0.323672 0 0 0 
-0.000819269 0.425018 0.323094 0 0 0 
-0.00876886 0.427147 0.322679 0 0 0 
-0.0167101 0.428027 0.322507 0 0 0 
-0.0246574 0.427894 0.322533 0 0 0 
-0.0332681 0.392996 0.329346 0 0 0 
-0.0414283 0.390983 0.329739 0 0 0 
-0.0496241 0.388391 0.330245 0 0 0 
-0.057865 0.38519 0.33087 0 0 0 
-0.0661566 0.381456 0.331599 0 0 0 
-0.0728481 0.415887 0.324877 0 0 0 
-0.0809748 0.413293 0.325384 0 0 0 
-0.0892518 0.408302 0.326358 0 0 0 
-0.0977045 0.401069 0.32777 0 0 0 
-0.106433 0.390492 0.329835 0 0 0 
0.0585719 0.314825 0.336124 0 0 0 
0.04933 0.341335 0.331074 0 0 0 
0.040781 0.349349 0.329548 0 0 0 
0.0322032 0.36288 0.32697 0 0 0 
0.0238132 0.37229 0.325178 0 0 0 
0.0155441 0.378406 0.324013 0 0 0 
0.00724758 0.402522 0.31942 0 0 0 
-0.000819269 0.412078 0.317599 0 0 0 
-0.00882118 0.416159 0.316822 0 0 0 
-0.0168016 0.418419 0.316392 0 0 0 
-0.02478 0.419311 0.316222 0 0 0 
-0.0327595 0.419696 0.316148 0 0 0 
-0.0407628 0.418932 0.316294 0 0 0 
-0.048797 0.417338 0.316597 0 0 0 
-0.0568688 0.415074 0.317029 0 0 0 
-0.0650048 0.411689 0.317673 0 0 0 
-0.0732428 0.406678 0.318628 0 0 0 
-0.0816206 0.399732 0.319951 0 0 0 
0.0498734 0.325629 0.331694 0 0 0 
0.0410095 0.34307 0.328455 0 0 0 
0.0323842 0.356707 0.325922 0 0 0 
