ply
format ascii 1.0
comment VCGLIB generated
element vertex 635
property float x
property float y
property float z
property float nx
property float ny
property float nz
property uchar red
property uchar green
property uchar blue
property uchar alpha
element face 0
property list uchar int vertex_indices
end_header
0.0520133 -0.441236 0.100146 -0.116748 -0.667963 -0.73498 255 255 255 255 
-0.358455 -0.344751 -0.134669 -0.303044 -0.951654 0.0501936 255 255 255 255 
-0.292081 -0.46158 -0.314636 -0.328362 0.939995 0.0926666 255 255 255 255 
-0.0249584 -0.454589 0.206405 0.0979066 0.348885 -0.932037 255 255 255 255 
0.135781 -0.409352 -0.348895 0.590944 0.0384861 -0.805794 255 255 255 255 
-0.274053 -0.363709 -0.00175178 -0.606829 -0.396108 0.689099 255 255 255 255 
-0.0207472 -0.412561 -0.47404 -0.141676 -0.98012 0.138895 255 255 255 255 
-0.113776 -0.465245 0.199534 0.281903 0.793683 -0.539072 255 255 255 255 
0.381482 -0.462001 0.0627066 -0.123312 0.940828 -0.315654 255 255 255 255 
-0.169151 -0.46302 -0.339994 -0.967463 0.0759272 -0.241349 255 255 255 255 
-0.0350688 -0.351371 -0.412234 -0.0340845 -0.403017 -0.914558 255 255 255 255 
-0.315302 -0.442565 -0.187962 -0.87608 -0.277461 0.394334 255 255 255 255 
0.322864 -0.432602 -0.119988 0.866893 -0.345753 0.359098 255 255 255 255 
0.426201 -0.446003 -0.00326273 -0.00540223 -0.73098 -0.682378 255 255 255 255 
-0.437015 -0.461517 -0.100974 -0.0312573 0.994493 -0.100038 255 255 255 255 
-0.0108702 -0.444976 0.211033 -0.196165 -0.0248797 -0.980255 255 255 255 255 
-0.125182 -0.358879 0.0883387 -0.324819 -0.435892 0.839339 255 255 255 255 
0.095647 -0.46542 -0.42488 -0.246495 0.967321 -0.0594186 255 255 255 255 
-0.289369 -0.460101 0.0778918 0.157909 0.817065 -0.554499 255 255 255 255 
-0.330133 -0.466108 0.0900597 -0.316503 0.948406 -0.0187745 255 255 255 255 
-0.148867 -0.44641 -0.358621 -0.92317 0.379102 -0.0635586 255 255 255 255 
0.131034 -0.352098 0.135058 -0.315787 -0.860114 -0.400602 255 255 255 255 
-0.300341 -0.388088 -0.235223 -0.262216 0.141393 -0.954595 255 255 255 255 
-0.0468941 -0.349443 0.1735 -0.219543 -0.957794 0.185556 255 255 255 255 
-0.234095 -0.441981 0.0332284 -0.206813 -0.30532 0.92952 255 255 255 255 
0.101759 -0.352412 0.153805 0.217794 -0.953961 -0.206213 255 255 255 255 
0.263049 -0.429642 -0.411433 -0.55856 -0.167956 0.812281 255 255 255 255 
-0.462335 -0.44089 -0.0807801 0.904693 -0.238922 -0.352771 255 255 255 255 
-0.182487 -0.381794 0.181249 0.0408957 0.0309408 -0.998684 255 255 255 255 
0.0305692 -0.349092 0.119477 0.20147 -0.96489 -0.168512 255 255 255 255 
0.386531 -0.467265 -0.128822 0.266457 0.940022 0.212975 255 255 255 255 
0.446459 -0.426273 -0.215877 -0.993213 0.115616 -0.0126582 255 255 255 255 
0.160043 -0.391143 -0.452557 -0.336932 0.032841 0.940956 255 255 255 255 
0.0750841 -0.348452 -0.363704 0.331113 0.155411 -0.930705 255 255 255 255 
0.23338 -0.460597 -0.316873 -0.115624 0.970107 0.213363 255 255 255 255 
0.443303 -0.367643 -0.233635 -0.903108 -0.0234412 0.428773 255 255 255 255 
-0.221209 -0.390853 -0.308983 -0.552057 -0.0319436 -0.833194 255 255 255 255 
0.323059 -0.402308 -0.380071 -0.800184 -0.0033023 0.599746 255 255 255 255 
-0.139567 -0.405459 0.19571 0.135991 0.0202722 -0.990503 255 255 255 255 
-0.0819578 -0.442151 -0.462142 0.289581 0.314515 0.904004 255 255 255 255 
0.131312 -0.467838 0.186822 -0.179134 0.973264 0.143763 255 255 255 255 
-0.0588394 -0.463743 0.139067 -0.0548085 0.906295 -0.419077 255 255 255 255 
0.308117 -0.460791 -0.290555 -0.0935631 0.939399 0.32981 255 255 255 255 
-0.23653 -0.46383 -0.334537 -0.427101 0.811577 0.398659 255 255 255 255 
-0.250241 -0.364224 -0.425796 0.519688 0.0403531 0.853402 255 255 255 255 
0.124835 -0.349624 0.0977778 0.802536 -0.507811 0.313152 255 255 255 255 
-0.297851 -0.394498 -0.0322168 -0.991449 0.0680438 -0.111349 255 255 255 255 
0.0641266 -0.349031 -0.369301 0.584855 -0.173336 -0.792401 255 255 255 255 
-0.346159 -0.463433 -0.0578386 0.119902 0.9925 0.0238045 255 255 255 255 
0.191202 -0.46525 0.176163 -0.10407 0.989604 -0.0992595 255 255 255 255 
-0.03267 -0.349062 0.203552 0.499986 -0.827482 -0.255515 255 255 255 255 
-0.251338 -0.352244 -0.380646 0.697475 -0.400439 0.594287 255 255 255 255 
-0.334322 -0.37883 0.107883 0.559563 -0.127444 -0.81893 255 255 255 255 
0.458567 -0.404567 -0.157418 -0.974591 0.19181 0.115674 255 255 255 255 
0.356981 -0.460899 -0.108599 -0.486822 0.856723 -0.170381 255 255 255 255 
0.248122 -0.467315 0.0714228 0.509319 0.830539 -0.225387 255 255 255 255 
-0.314493 -0.346578 -0.176688 0.997886 -0.0631027 0.0155502 255 255 255 255 
-0.270102 -0.453103 -0.417161 0.508181 -0.132887 0.850937 255 255 255 255 
0.305638 -0.43596 -0.389916 -0.645668 0.0075138 0.763581 255 255 255 255 
-0.0708714 -0.459008 -0.381463 -0.0070582 0.9742 -0.225574 255 255 255 255 
0.142766 -0.467542 0.0813618 -0.297577 0.268838 -0.916064 255 255 255 255 
-0.169586 -0.465455 -0.434781 0.130304 0.953707 0.271042 255 255 255 255 
0.378774 -0.346038 0.0386061 0.0762968 -0.866736 -0.492897 255 255 255 255 
-0.311538 -0.346834 -0.36225 -0.326265 -0.783797 -0.528406 255 255 255 255 
-0.330298 -0.343864 -0.354707 0.239409 -0.969964 0.0430412 255 255 255 255 
-0.406342 -0.462657 0.039704 0.472017 0.527662 -0.706239 255 255 255 255 
-0.2446 -0.34988 0.0265461 -0.391867 -0.626871 -0.673405 255 255 255 255 
0.0273951 -0.373367 -0.366459 0.097453 0.0301844 -0.994782 255 255 255 255 
-0.462464 -0.359757 -0.0972115 0.946375 0.000463159 -0.323071 255 255 255 255 
0.217601 -0.387088 0.164298 -0.190243 -0.068548 -0.979341 255 255 255 255 
0.284979 -0.464755 -0.383305 0.373263 0.920739 -0.11364 255 255 255 255 
0.456662 -0.429461 -0.171771 -0.988198 0.152339 -0.0160188 255 255 255 255 
-0.380283 -0.348237 -0.159752 0.376487 -0.839493 0.391803 255 255 255 255 
0.160222 -0.458202 -0.36209 0.130335 0.98858 -0.0756416 255 255 255 255 
0.180359 -0.449931 0.179006 -0.379725 0.23349 -0.895149 255 255 255 255 
-0.214763 -0.424043 -0.308951 -0.505918 -0.335843 -0.794517 255 255 255 255 
0.461933 -0.393742 -0.16464 -0.875244 0.352097 0.331626 255 255 255 255 
0.304522 -0.459862 -0.220423 -0.0242733 -0.631673 0.774855 255 255 255 255 
0.336888 -0.348973 -0.0792948 -0.398206 -0.907622 -0.132872 255 255 255 255 
0.154008 -0.465368 0.102025 -0.391721 0.914795 -0.0985168 255 255 255 255 
-0.261849 -0.445149 -0.417544 0.392455 -0.0121851 0.919691 255 255 255 255 
0.307639 -0.463137 0.0720674 -0.177347 0.96246 -0.205472 255 255 255 255 
0.12817 -0.43337 0.196396 0.68633 0.416002 -0.596568 255 255 255 255 
0.463536 -0.364328 -0.139854 -0.955241 0.188016 0.228396 255 255 255 255 
-0.29821 -0.346262 -0.355176 0.145953 -0.98658 0.0731901 255 255 255 255 
-0.30206 -0.454752 -0.0415061 -0.835815 0.275481 0.474894 255 255 255 255 
-0.363294 -0.4661 -0.0978081 0.040231 0.993511 -0.106386 255 255 255 255 
0.254643 -0.464186 -0.329143 -0.165659 0.985281 0.0421664 255 255 255 255 
0.0842568 -0.349683 -0.441264 0.147842 -0.943358 -0.297017 255 255 255 255 
-0.279594 -0.393656 -0.412322 0.655164 -0.11927 0.746013 255 255 255 255 
-0.242617 -0.455433 -0.377018 -0.058109 0.835467 0.54646 255 255 255 255 
0.371762 -0.465666 -0.273067 0.0541005 0.998499 -0.00850754 255 255 255 255 
0.0848159 -0.466179 0.175305 -0.334073 0.941118 -0.0518892 255 255 255 255 
0.381507 -0.392524 0.0592063 0.0249171 -0.0813642 -0.996373 255 255 255 255 
0.0937673 -0.39266 -0.468974 0.107543 0.130844 0.985553 255 255 255 255 
-0.363198 -0.383301 0.0891061 0.52674 -0.0607297 -0.847854 255 255 255 255 
0.41537 -0.415609 0.0264868 -0.740342 0.444479 -0.504314 255 255 255 255 
0.21336 -0.39588 0.167906 -0.00710705 0.0977486 -0.995186 255 255 255 255 
0.00554901 -0.357887 0.210316 -0.425711 -0.157034 -0.891129 255 255 255 255 
-0.0285381 -0.463392 0.173253 0.132597 0.943712 0.303026 255 255 255 255 
-0.0426857 -0.458848 -0.420904 -0.0373803 0.94791 -0.316337 255 255 255 255 
0.00511771 -0.445725 -0.36751 0.177914 0.0272378 -0.983669 255 255 255 255 
0.173669 -0.347323 -0.387137 -0.263007 -0.964686 0.0144435 255 255 255 255 
-0.116518 -0.463889 -0.366675 0.211591 0.617545 -0.75754 255 255 255 255 
0.0623384 -0.343632 0.162764 -0.080414 -0.99669 0.0119484 255 255 255 255 
0.343842 -0.399816 0.0964097 -0.910949 -0.385762 -0.146149 255 255 255 255 
-0.025793 -0.427675 0.208337 0.0632309 0.0594398 -0.996227 255 255 255 255 
0.33243 -0.46603 -0.162745 0.0392656 0.997802 0.0533848 255 255 255 255 
-0.417021 -0.45699 -0.294232 0.944192 0.0573371 0.324367 255 255 255 255 
0.274588 -0.419123 0.148157 -0.786634 -0.430225 -0.442847 255 255 255 255 
0.23748 -0.350599 -0.352848 -0.70916 -0.486064 0.510719 255 255 255 255 
0.39037 -0.347256 -0.290919 0.153587 -0.934205 -0.321982 255 255 255 255 
0.0861714 -0.345333 -0.431101 0.0491535 -0.997027 -0.0593438 255 255 255 255 
0.121874 -0.347616 0.145227 0.0465774 -0.915175 0.400357 255 255 255 255 
0.441139 -0.388434 -0.0348172 -0.760268 0.18239 -0.623479 255 255 255 255 
-0.130763 -0.455231 -0.459877 0.911977 -0.38105 0.151984 255 255 255 255 
0.00134528 -0.381508 -0.471011 -0.299633 -0.420441 0.856417 255 255 255 255 
-0.245133 -0.422573 0.159905 0.422163 -0.158458 -0.892563 255 255 255 255 
0.311058 -0.343875 -0.0136531 0.393663 -0.912955 -0.107436 255 255 255 255 
-0.353578 -0.344841 0.086318 0.194219 -0.897612 -0.39569 255 255 255 255 
-0.456862 -0.376298 -0.0500303 0.932039 -0.052733 -0.3585 255 255 255 255 
-0.258721 -0.358816 0.0130772 -0.727066 0.135453 0.673073 255 255 255 255 
0.344002 -0.461978 -0.239872 -0.115628 0.982329 0.147174 255 255 255 255 
0.0233276 -0.445783 -0.368706 0.355022 -0.0718221 -0.932095 255 255 255 255 
-0.32305 -0.34662 -0.157318 -0.90816 0.0473554 -0.415935 255 255 255 255 
0.115669 -0.396948 -0.357211 0.199405 0.0375001 -0.979199 255 255 255 255 
-0.318294 -0.426919 0.0817534 -0.470936 0.587969 0.657656 255 255 255 255 
0.375356 -0.453856 -0.0751359 -0.212998 0.969513 0.121147 255 255 255 255 
0.344427 -0.34629 -0.180414 -0.104733 -0.994404 -0.013856 255 255 255 255 
0.425636 -0.44027 -0.128183 -0.949392 0.115577 0.292058 255 255 255 255 
-0.0263508 -0.344199 -0.457388 -0.163933 -0.9854 0.0459683 255 255 255 255 
0.442315 -0.392098 -0.0362507 -0.57864 0.346753 -0.7382 255 255 255 255 
0.091621 -0.429307 0.175765 -0.688984 0.724347 0.0249553 255 255 255 255 
-0.115277 -0.351592 0.138633 -0.0214106 -0.993551 0.111349 255 255 255 255 
0.467155 -0.350632 -0.142879 -0.923284 0.383193 -0.0266517 255 255 255 255 
-0.117692 -0.446908 -0.351568 -0.828349 -0.37838 -0.413119 255 255 255 255 
-0.212101 -0.465705 0.139375 0.0208003 0.955598 0.29394 255 255 255 255 
-0.147578 -0.359946 0.0849957 -0.804009 0.28424 0.52228 255 255 255 255 
-0.467966 -0.376576 -0.114064 0.815135 -0.312698 -0.487623 255 255 255 255 
0.358421 -0.346951 -0.336355 0.30851 -0.947797 -0.0806365 255 255 255 255 
-0.14116 -0.386687 0.192322 0.299118 0.0685241 -0.951753 255 255 255 255 
-0.176286 -0.461725 0.152723 0.14079 0.922647 -0.359027 255 255 255 255 
-0.254145 -0.455142 -0.423834 0.214995 0.483256 0.84867 255 255 255 255 
-0.320688 -0.466215 -0.317355 0.126274 0.985247 0.115514 255 255 255 255 
-0.123884 -0.410254 -0.458407 0.294199 0.441399 0.847711 255 255 255 255 
0.310565 -0.349797 -0.0581079 0.206918 -0.959019 0.193567 255 255 255 255 
0.36464 -0.442351 0.0874061 -0.951419 0.0366839 0.305706 255 255 255 255 
-0.424514 -0.356059 -0.272933 0.810843 -0.240799 0.533433 255 255 255 255 
0.453007 -0.372289 -0.218331 -0.991015 -0.123764 0.0507153 255 255 255 255 
0.200542 -0.346837 -0.430023 0.413583 -0.860219 0.298283 255 255 255 255 
-0.217278 -0.464722 -0.403821 -0.0739246 0.983038 0.167844 255 255 255 255 
0.357849 -0.457855 -0.349727 -0.726171 -0.0160225 0.687328 255 255 255 255 
0.3132 -0.35432 0.125695 0.196437 -0.348039 -0.916669 255 255 255 255 
0.324314 -0.459425 -0.371446 -0.386091 0.418937 0.821843 255 255 255 255 
-0.448047 -0.453471 -0.222978 0.949403 0.295175 0.107265 255 255 255 255 
0.425921 -0.400743 -0.00250697 -0.925821 -0.0395341 -0.375889 255 255 255 255 
-0.326354 -0.345653 -0.0985353 0.152399 -0.955779 0.251518 255 255 255 255 
0.193181 -0.348463 0.1246 -0.570075 -0.696286 0.436119 255 255 255 255 
-0.280705 -0.347959 -0.276427 0.464437 -0.878992 0.108033 255 255 255 255 
0.143847 -0.377287 -0.346764 0.354279 0.0466478 -0.933976 255 255 255 255 
0.407581 -0.463689 -0.120509 0.0775062 0.924859 -0.372328 255 255 255 255 
0.169156 -0.467581 -0.343783 -0.251238 0.848633 -0.465512 255 255 255 255 
-0.280052 -0.348845 0.0995044 -0.136126 -0.985882 -0.0975005 255 255 255 255 
0.236452 -0.344477 0.0919814 -0.460157 -0.498767 0.734498 255 255 255 255 
0.145367 -0.35256 0.0899085 -0.370364 -0.903999 0.21358 255 255 255 255 
0.167587 -0.465825 -0.402667 0.842212 0.442593 0.307882 255 255 255 255 
0.113566 -0.463676 0.162555 0.248313 0.896579 -0.366724 255 255 255 255 
-0.156871 -0.400584 0.0815289 -0.428175 -0.158088 0.889761 255 255 255 255 
-0.311435 -0.346747 -0.239142 -0.0651752 -0.927177 0.36891 255 255 255 255 
-0.434648 -0.34527 -0.0757301 0.0250678 -0.999538 -0.0171849 255 255 255 255 
0.141443 -0.374612 0.197082 -0.543449 0.578449 -0.608325 255 255 255 255 
0.317307 -0.462476 0.100887 -0.0413172 0.976859 0.209855 255 255 255 255 
-0.382399 -0.460147 -0.0379717 0.385931 0.921539 0.0426864 255 255 255 255 
-0.277109 -0.466245 0.0698609 -0.327429 0.925179 0.191922 255 255 255 255 
0.412386 -0.369989 -0.288055 -0.879009 -0.0264651 0.476069 255 255 255 255 
-0.0754229 -0.466996 0.136466 -0.301516 0.939464 -0.162774 255 255 255 255 
-0.323935 -0.377523 -0.0896432 -0.831006 0.213731 0.513564 255 255 255 255 
0.365181 -0.463961 0.032622 -0.514193 0.740503 0.432736 255 255 255 255 
-0.37305 -0.346008 -0.207933 -0.0535899 -0.976689 0.207861 255 255 255 255 
0.393907 -0.350671 -0.275177 0.590044 -0.559685 0.581894 255 255 255 255 
-0.0176324 -0.444131 -0.472158 -0.448634 0.163147 0.878698 255 255 255 255 
0.459747 -0.445886 -0.0692433 -0.983285 -0.16287 -0.0813868 255 255 255 255 
-0.0359491 -0.348649 0.135857 0.237868 -0.895532 -0.376085 255 255 255 255 
0.216469 -0.351469 0.15603 0.270157 -0.96269 0.0156066 255 255 255 255 
0.00998014 -0.350428 0.20814 0.0303835 -0.947878 -0.317182 255 255 255 255 
-0.306145 -0.369625 -0.20425 -0.295648 0.835142 0.463821 255 255 255 255 
-0.447966 -0.431532 -0.243358 0.985012 -0.16818 0.0383066 255 255 255 255 
-0.445979 -0.466417 -0.0845138 0.440983 0.89265 -0.0933248 255 255 255 255 
-0.0913764 -0.345403 -0.40809 0.0941346 -0.989468 0.10996 255 255 255 255 
0.350772 -0.346178 -0.355544 -0.65231 -0.757944 -0.00353084 255 255 255 255 
-0.136126 -0.479084 -0.396983 0.372523 0.582152 -0.722721 255 255 255 255 
-0.186972 -0.384557 -0.329859 -0.346939 -0.457707 -0.818619 255 255 255 255 
0.296464 -0.34523 -0.37731 0.207788 -0.972868 -0.101748 255 255 255 255 
0.398665 -0.460102 -0.250754 0.203862 0.546839 -0.812039 255 255 255 255 
0.386503 -0.46815 -0.260134 0.0627906 0.955185 -0.289272 255 255 255 255 
0.0199771 -0.399317 -0.372602 0.589588 -0.241033 -0.770902 255 255 255 255 
0.379037 -0.40528 0.0680298 -0.992513 0.00394074 -0.122076 255 255 255 255 
0.0319919 -0.4666 -0.41708 0.392302 0.912583 0.115288 255 255 255 255 
0.451224 -0.371308 -0.204216 -0.930423 0.085601 0.35635 255 255 255 255 
0.22188 -0.387749 0.0342758 0.388591 -0.253623 0.885818 255 255 255 255 
-0.336638 -0.345555 -0.0867912 0.326021 -0.945161 0.0195278 255 255 255 255 
-0.158436 -0.457363 -0.344558 -0.465859 0.787644 0.403226 255 255 255 255 
-0.242129 -0.420742 0.0273798 -0.659965 0.204686 0.722876 255 255 255 255 
0.381685 -0.350708 -0.265114 0.891789 -0.275287 -0.359068 255 255 255 255 
0.391938 -0.458765 -0.214238 0.25023 0.944483 0.212923 255 255 255 255 
0.372824 -0.351444 -0.0430506 0.0587691 -0.923498 0.379074 255 255 255 255 
-0.324508 -0.461379 -0.084238 -0.581503 0.812976 0.0304016 255 255 255 255 
-0.467861 -0.397445 -0.0953323 0.902267 0.332323 -0.274728 255 255 255 255 
-0.0451932 -0.431953 -0.37008 0.0346097 -0.0762246 -0.99649 255 255 255 255 
-0.293901 -0.462357 -0.253599 -0.462505 0.868894 0.176387 255 255 255 255 
0.0211211 -0.389081 0.208935 -0.0574634 0.0845355 -0.994762 255 255 255 255 
-0.419109 -0.442807 0.0198674 0.809623 0.030027 -0.586181 255 255 255 255 
0.307856 -0.433392 -0.194371 0.861877 -0.0640351 -0.503058 255 255 255 255 
0.298292 -0.347733 -0.259111 0.0779932 -0.916281 0.392869 255 255 255 255 
-0.396058 -0.465492 -0.139935 0.361233 0.930633 0.0585847 255 255 255 255 
0.36033 -0.429226 -0.347863 -0.785588 -0.260766 0.561118 255 255 255 255 
0.142599 -0.354726 0.0857658 -0.685384 -0.598244 0.415155 255 255 255 255 
0.430743 -0.46089 -0.175666 0.154622 0.987859 -0.0150416 255 255 255 255 
-0.174076 -0.383963 0.185072 0.401963 -0.0725104 -0.912781 255 255 255 255 
-0.224216 -0.459748 0.0572589 -0.0444523 0.961483 -0.271245 255 255 255 255 
0.217021 -0.348664 -0.362491 -0.504572 -0.788961 -0.350638 255 255 255 255 
-0.0193427 -0.424695 -0.470145 0.30381 0.371872 0.877161 255 255 255 255 
0.234994 -0.461465 -0.293501 0.549335 0.442779 -0.708645 255 255 255 255 
0.289735 -0.465502 -0.364681 0.0371868 0.976476 0.212397 255 255 255 255 
-0.0144779 -0.412541 0.108313 0.0513943 0.0443091 0.997695 255 255 255 255 
-0.0859296 -0.361777 0.210468 0.196321 -0.433925 -0.879299 255 255 255 255 
0.093258 -0.386176 -0.468853 0.178902 0.203825 0.962522 255 255 255 255 
-0.202922 -0.41757 0.0563043 -0.456338 -0.0599367 0.887786 255 255 255 255 
-0.404929 -0.458799 0.0218139 0.183763 0.671825 0.717553 255 255 255 255 
-0.106628 -0.457475 -0.462879 -0.0536721 0.979161 0.195865 255 255 255 255 
0.344641 -0.351417 -0.0689319 -0.344531 -0.921894 0.177231 255 255 255 255 
0.139946 -0.476794 -0.345854 0.298384 0.692646 0.656665 255 255 255 255 
-0.325512 -0.466384 -0.205821 -0.178264 0.98082 0.0788233 255 255 255 255 
-0.230862 -0.391428 -0.30511 -0.640072 -0.0246334 -0.76792 255 255 255 255 
0.313751 -0.388949 -0.177999 0.981231 -0.112849 -0.15637 255 255 255 255 
0.141294 -0.449443 -0.414572 0.768311 0.609873 -0.194305 255 255 255 255 
-0.188414 -0.466282 0.148815 0.557169 0.795573 -0.237963 255 255 255 255 
0.40326 -0.349128 -0.144672 0.0161901 -0.99049 -0.136627 255 255 255 255 
0.357527 -0.459281 0.0385062 0.343553 0.937113 -0.0615681 255 255 255 255 
0.408737 -0.415681 -0.289043 -0.80389 0.0198418 0.594448 255 255 255 255 
-0.289992 -0.346039 -0.349873 0.374953 -0.915264 0.147316 255 255 255 255 
-0.251446 -0.377749 -0.290558 -0.732343 0.243087 -0.636068 255 255 255 255 
0.313951 -0.427408 -0.163618 0.939983 0.328453 -0.0924682 255 255 255 255 
0.319655 -0.420261 0.118791 -0.829493 -0.0528991 0.556006 255 255 255 255 
-0.301685 -0.34827 -0.014196 -0.0585339 -0.694483 -0.717124 255 255 255 255 
0.279064 -0.400732 -0.401949 -0.480735 0.0116238 0.876789 255 255 255 255 
-0.448307 -0.382697 -0.0299501 0.971486 -0.0780349 -0.223887 255 255 255 255 
0.259779 -0.347553 -0.383265 0.561871 -0.560111 0.608751 255 255 255 255 
-0.0124316 -0.350457 -0.473789 0.437269 -0.699575 0.565146 255 255 255 255 
-0.39228 -0.427695 -0.0948903 -0.225625 0.969983 -0.0907046 255 255 255 255 
-0.302478 -0.343437 0.125382 0.0939338 -0.915373 -0.391496 255 255 255 255 
0.156686 -0.413991 -0.450051 0.0879663 0.322963 0.942315 255 255 255 255 
0.391343 -0.430991 -0.31396 -0.76793 0.0285183 0.639898 255 255 255 255 
-0.0200484 -0.447378 -0.469748 0.24246 0.150657 0.958392 255 255 255 255 
0.303473 -0.35107 -0.274337 0.564988 -0.823973 0.0430983 255 255 255 255 
0.221733 -0.35975 -0.431602 -0.0986659 -0.0467812 0.99402 255 255 255 255 
-0.270749 -0.378914 0.00519758 -0.790775 -0.0815309 0.606653 255 255 255 255 
-0.280531 -0.442193 0.138665 0.580114 -0.136557 -0.803007 255 255 255 255 
0.253916 -0.360316 0.00983268 0.247173 -0.796564 0.551717 255 255 255 255 
0.304124 -0.453476 -0.210032 0.772721 0.492691 -0.400197 255 255 255 255 
-0.28945 -0.432338 -0.0273413 -0.882815 0.162093 0.440866 255 255 255 255 
-0.0511109 -0.464935 0.172847 -0.442782 0.819833 0.363067 255 255 255 255 
0.27704 -0.465229 0.13162 0.00087273 0.92421 -0.381883 255 255 255 255 
-0.2825 -0.390845 -0.256432 -0.0552033 -0.903726 -0.424538 255 255 255 255 
0.249484 -0.437417 -0.4205 -0.457504 0.114411 0.881817 255 255 255 255 
0.104516 -0.454664 -0.464448 0.620486 0.465809 0.630888 255 255 255 255 
-0.326859 -0.429909 -0.373557 -0.305268 0.285264 0.908535 255 255 255 255 
0.381925 -0.345779 -0.327073 -0.595813 0.143176 0.790258 255 255 255 255 
-0.229167 -0.462167 -0.403499 0.0669522 0.79873 0.597952 255 255 255 255 
0.389292 -0.349927 0.0544345 -0.922654 -0.385196 -0.0182471 255 255 255 255 
0.272769 -0.459984 0.138704 0.69821 0.355852 -0.621186 255 255 255 255 
0.464705 -0.430346 -0.103014 -0.59403 0.446673 0.669038 255 255 255 255 
0.164886 -0.405404 -0.335571 0.293592 -0.0950214 -0.951197 255 255 255 255 
-0.115 -0.345645 -0.412914 0.39136 -0.917198 -0.074728 255 255 255 255 
-0.319194 -0.37425 -0.19357 -0.922046 -0.298398 -0.246557 255 255 255 255 
-0.0373658 -0.451354 -0.469302 -0.0738241 0.212931 0.974274 255 255 255 255 
-0.421781 -0.371445 -0.273573 0.598208 -0.223067 -0.769668 255 255 255 255 
-0.0137908 -0.438959 0.110594 0.567613 -0.603252 0.56027 255 255 255 255 
-0.373728 -0.438618 0.0751066 0.53809 -0.180188 -0.823403 255 255 255 255 
0.123816 -0.466155 0.108673 0.115497 0.993111 0.0197749 255 255 255 255 
-0.382088 -0.425175 0.0669534 0.759387 0.0219433 -0.650269 255 255 255 255 
0.270072 -0.386955 -0.412039 -0.368472 -0.0333171 0.929042 255 255 255 255 
-0.0775234 -0.428484 -0.475014 0.30622 0.484868 0.819227 255 255 255 255 
-0.258594 -0.355415 -0.414243 0.294288 -0.2048 0.933516 255 255 255 255 
0.104809 -0.434742 0.0909293 0.00620483 -0.355846 0.934524 255 255 255 255 
-0.312669 -0.325194 0.0264218 0.601413 -0.292028 -0.743655 255 255 255 255 
0.392684 -0.364031 0.0438396 -0.671015 0.0733301 -0.737808 255 255 255 255 
-0.239767 -0.43477 0.0314402 -0.60957 -0.0611849 0.790367 255 255 255 255 
-0.420325 -0.347573 -0.000393897 0.0113502 -0.988167 -0.152962 255 255 255 255 
-0.35299 -0.374241 0.0911865 0.602035 -0.126247 -0.788426 255 255 255 255 
0.351478 -0.439571 -0.35551 -0.721067 0.0622236 0.690066 255 255 255 255 
-0.00856996 -0.433844 0.111566 0.952076 -0.295301 0.0796762 255 255 255 255 
0.301064 -0.434714 0.122745 -0.784549 -0.189764 -0.590315 255 255 255 255 
0.124591 -0.346765 -0.428546 -0.6904 -0.723365 0.0094934 255 255 255 255 
0.409187 -0.462444 -0.0724173 -0.00370528 0.863924 -0.503609 255 255 255 255 
0.333667 -0.347549 -0.0392095 0.252515 -0.963904 -0.0844148 255 255 255 255 
-0.466701 -0.465751 -0.0937411 0.503242 0.841689 0.195722 255 255 255 255 
-0.305947 -0.441627 0.126892 0.518034 0.119832 -0.846924 255 255 255 255 
0.00582868 -0.351946 0.135784 -0.214204 -0.951263 0.221845 255 255 255 255 
-0.456659 -0.367303 -0.0523749 0.932823 0.153956 -0.325789 255 255 255 255 
-0.0812805 -0.376352 0.202876 0.302441 -0.195049 -0.932998 255 255 255 255 
0.463907 -0.364285 -0.0804767 -0.784372 -0.609852 0.113323 255 255 255 255 
-0.38004 -0.466469 -0.294018 0.70574 0.67793 0.205772 255 255 255 255 
0.319194 -0.425297 0.114526 -0.989857 -0.00607677 0.141938 255 255 255 255 
0.449389 -0.34841 -0.106502 0.139573 -0.932186 -0.33399 255 255 255 255 
-0.120257 -0.347865 0.142846 -0.139324 -0.973004 -0.183989 255 255 255 255 
-0.109315 -0.451027 0.201494 0.1101 0.123233 -0.986251 255 255 255 255 
0.303506 -0.351523 0.00370252 0.655782 -0.75443 -0.0280411 255 255 255 255 
-0.359177 -0.464192 -0.17999 0.273493 0.828604 -0.488484 255 255 255 255 
0.0208933 -0.363676 -0.474993 -0.622099 -0.000598934 0.782938 255 255 255 255 
-0.175435 -0.443965 -0.334319 -0.707967 0.120581 -0.695876 255 255 255 255 
-0.104293 -0.462048 0.137365 0.410588 0.78127 0.470143 255 255 255 255 
-0.0089896 -0.423749 -0.370259 0.205131 -0.260027 -0.943561 255 255 255 255 
0.224823 -0.345446 0.168525 -0.720195 0.513765 -0.466224 255 255 255 255 
-0.0144149 -0.460013 -0.394034 0.327252 0.933388 -0.147285 255 255 255 255 
0.454969 -0.370235 -0.0881253 -0.907849 0.2801 -0.312016 255 255 255 255 
-0.29031 -0.446176 -0.246585 -0.913458 -0.05861 -0.402691 255 255 255 255 
-0.341096 -0.348479 0.005494 0.10321 -0.983251 0.15022 255 255 255 255 
-0.456392 -0.35301 -0.157374 0.598628 -0.609698 -0.519531 255 255 255 255 
-0.403382 -0.458131 -0.00166726 -0.428764 0.864929 0.260882 255 255 255 255 
-0.0954355 -0.351677 0.195836 -0.847566 -0.449509 -0.282087 255 255 255 255 
0.0114076 -0.446936 -0.371036 -0.125351 -0.277452 -0.952527 255 255 255 255 
0.266608 -0.350904 -0.00261855 -0.39617 0.917963 -0.0198178 255 255 255 255 
0.0110314 -0.343887 0.150979 0.0307213 -0.999141 0.0278302 255 255 255 255 
0.219516 -0.345791 -0.419984 0.285981 -0.938051 0.195641 255 255 255 255 
-0.0242452 -0.466062 -0.412943 -0.0508854 0.934553 -0.352166 255 255 255 255 
0.0814089 -0.428674 0.203941 0.00228756 0.69665 -0.717408 255 255 255 255 
0.256054 -0.431754 0.149896 -0.074581 0.0947637 -0.992702 255 255 255 255 
0.0718017 -0.458211 0.10564 -0.974263 0.223352 -0.0304124 255 255 255 255 
0.168516 -0.364 -0.44871 0.031944 -0.103382 0.994129 255 255 255 255 
-0.341343 -0.34751 0.0693853 0.0410572 -0.996019 -0.079121 255 255 255 255 
-0.188637 -0.351044 0.124177 -0.890695 -0.341953 -0.29955 255 255 255 255 
-0.172187 -0.428468 -0.335977 -0.305778 -0.935336 0.177893 255 255 255 255 
-0.238299 -0.377892 -0.291923 -0.716763 -0.626503 0.306177 255 255 255 255 
0.270628 -0.348097 -0.341581 0.962349 -0.113931 0.246788 255 255 255 255 
0.147187 -0.44304 -0.460575 -0.58249 -0.0917331 0.807645 255 255 255 255 
0.0198338 -0.402265 -0.371137 -0.753795 0.368096 -0.544333 255 255 255 255 
0.35003 -0.352698 0.0104605 -0.349575 -0.57781 0.737518 255 255 255 255 
0.117822 -0.363417 -0.425279 0.199206 -0.713959 0.671252 255 255 255 255 
-0.261122 -0.351577 -0.288766 -0.560253 -0.761015 -0.327066 255 255 255 255 
-0.29257 -0.356371 -0.238678 0.318677 -0.854792 -0.409605 255 255 255 255 
0.294222 -0.410053 0.128358 -0.60604 0.27076 -0.747934 255 255 255 255 
0.279543 -0.406798 -0.404458 -0.32683 -0.170456 0.929584 255 255 255 255 
0.321644 -0.429549 -0.157545 0.988753 0.04182 -0.143589 255 255 255 255 
0.137442 -0.443831 -0.458525 -0.247717 -0.401328 0.881801 255 255 255 255 
-0.307366 -0.461987 -0.339294 0.0173816 0.944889 0.326928 255 255 255 255 
-0.264294 -0.463366 -0.419533 0.0463407 0.681905 0.729971 255 255 255 255 
0.100584 -0.463482 0.183982 -0.397077 0.892368 -0.214498 255 255 255 255 
-0.0944613 -0.458019 0.202732 0.353514 0.0200436 -0.935214 255 255 255 255 
-0.403345 -0.398168 -0.298524 0.572814 -0.0199654 0.819442 255 255 255 255 
-0.0210394 -0.345686 -0.397554 -0.291543 -0.946788 -0.136364 255 255 255 255 
-0.161131 -0.390391 0.188676 -0.00580037 -0.183542 -0.982995 255 255 255 255 
0.347205 -0.464143 -0.050161 -0.337244 0.929211 -0.151111 255 255 255 255 
-0.471467 -0.426952 -0.16475 0.944118 0.213225 0.251347 255 255 255 255 
0.179811 -0.368427 -0.44608 -0.274815 -0.0675533 0.959121 255 255 255 255 
-0.309622 -0.385062 -0.394864 -0.0373083 0.588014 0.80799 255 255 255 255 
0.156519 -0.464547 0.102082 0.0934851 0.995591 -0.00772713 255 255 255 255 
0.0284294 -0.442504 0.208124 0.600537 0.0263542 -0.799162 255 255 255 255 
-0.190328 -0.344863 0.109715 -0.150076 -0.985756 0.0759091 255 255 255 255 
-0.0304678 -0.373131 -0.471564 0.123715 0.320933 0.938987 255 255 255 255 
0.296668 -0.454058 -0.03548 0.763837 0.577597 0.287983 255 255 255 255 
0.11634 -0.391141 0.197348 0.927223 -0.071955 -0.367532 255 255 255 255 
-0.111192 -0.466135 0.106928 0.175224 0.936847 0.302678 255 255 255 255 
-0.411206 -0.402626 -0.302137 0.411514 -0.384803 0.826186 255 255 255 255 
-0.168285 -0.465426 -0.397273 0.357118 0.934042 -0.00562213 255 255 255 255 
-0.441554 -0.349998 -0.194659 0.0904138 -0.962079 0.257351 255 255 255 255 
0.0399308 -0.384095 0.211527 0.959255 0.234334 -0.157854 255 255 255 255 
0.205267 -0.393075 0.173285 -0.231752 0.558451 -0.796507 255 255 255 255 
0.302246 -0.462512 0.127092 -0.54151 0.769726 -0.338066 255 255 255 255 
0.202439 -0.435034 0.0493415 0.524564 0.578902 0.624264 255 255 255 255 
-0.205003 -0.457152 -0.434742 0.293898 0.161845 0.942035 255 255 255 255 
0.223469 -0.400398 -0.433279 -0.264476 0.0467485 0.963259 255 255 255 255 
-0.395065 -0.438903 -0.313266 0.837759 -0.31412 0.446641 255 255 255 255 
0.200011 -0.459052 0.093505 0.13086 0.973011 -0.190068 255 255 255 255 
-0.317199 -0.3476 0.0967495 0.207909 -0.916632 0.341408 255 255 255 255 
-0.316374 -0.455031 0.122452 0.439254 -0.627446 -0.642937 255 255 255 255 
-0.247333 -0.459531 0.0839953 -0.290593 0.734548 -0.613185 255 255 255 255 
0.162573 -0.40472 -0.450944 -0.237763 0.223971 0.945149 255 255 255 255 
-0.186639 -0.383883 -0.325853 -0.601012 0.793073 -0.0990991 255 255 255 255 
0.371066 -0.347618 0.0735854 -0.528417 0.47813 -0.701546 255 255 255 255 
-0.358306 -0.353087 -0.0652547 0.238773 -0.966368 0.0955011 255 255 255 255 
-0.266287 -0.46378 0.120654 -0.373037 0.927249 0.0324338 255 255 255 255 
-0.168847 -0.369864 0.0741469 -0.0731488 0.141989 0.987162 255 255 255 255 
0.3264 -0.405247 -0.0311246 0.22915 0.740084 0.63227 255 255 255 255 
-0.0198277 -0.345973 -0.407051 -0.136554 -0.989371 0.0499839 255 255 255 255 
-0.0026699 -0.458332 -0.404442 -0.126139 0.611746 -0.780933 255 255 255 255 
0.265661 -0.372272 -0.26732 0.86218 -0.0129363 -0.506436 255 255 255 255 
-0.24477 -0.461014 -0.407663 -0.538265 0.842621 0.0161592 255 255 255 255 
-0.181228 -0.403315 -0.446815 0.633648 0.214867 0.743184 255 255 255 255 
0.334412 -0.461161 0.112944 0.075748 0.995291 0.0604739 255 255 255 255 
-0.457025 -0.450371 -0.225261 0.881406 -0.153918 0.446579 255 255 255 255 
-0.360094 -0.352892 -0.0886761 0.0544447 -0.985321 -0.161798 255 255 255 255 
-0.204456 -0.433582 -0.435011 0.141639 0.0587794 0.988172 255 255 255 255 
0.267105 -0.449558 -0.00580755 0.0444287 -0.00159666 0.999011 255 255 255 255 
0.282807 -0.429799 0.133664 -0.401632 0.647355 -0.647783 255 255 255 255 
0.162673 -0.467119 -0.384204 0.497765 0.805705 -0.321045 255 255 255 255 
-0.320427 -0.467448 -0.241839 0.10927 0.925956 0.361478 255 255 255 255 
0.06228 -0.383185 0.203772 0.0139448 -0.253181 -0.967318 255 255 255 255 
-0.385976 -0.463573 -0.181939 -0.258656 0.952523 -0.160614 255 255 255 255 
-0.0347617 -0.463872 0.181644 -0.0870503 0.97933 0.18258 255 255 255 255 
0.289433 -0.362003 -0.239526 0.813951 -0.112553 -0.569927 255 255 255 255 
-0.136032 -0.462162 -0.419635 -0.332263 0.757805 -0.561545 255 255 255 255 
-0.465196 -0.384916 -0.13562 0.99907 0.0386133 0.0191744 255 255 255 255 
-0.174652 -0.414302 -0.447011 0.399513 -0.30069 0.866011 255 255 255 255 
-0.254597 -0.450652 -0.287981 -0.746725 0.0385321 -0.664016 255 255 255 255 
0.274142 -0.446488 -0.260983 0.837257 0.0406078 -0.5453 255 255 255 255 
0.247742 -0.435361 0.16244 -0.857214 -0.120677 -0.500621 255 255 255 255 
0.373384 -0.428939 -0.335096 -0.680601 0.0879112 0.727361 255 255 255 255 
-0.0514251 -0.34782 0.206399 -0.105887 0.772798 -0.625756 255 255 255 255 
0.418689 -0.428854 -0.0774207 0.657702 0.11874 0.743861 255 255 255 255 
0.433014 -0.371148 -0.254071 -0.785059 -0.125236 0.606629 255 255 255 255 
0.0435133 -0.347097 -0.435858 -0.785428 -0.517481 -0.339582 255 255 255 255 
0.45879 -0.454224 -0.0960203 -0.934451 0.356087 0.0017421 255 255 255 255 
0.085946 -0.392816 0.201493 -0.491598 0.244046 -0.835926 255 255 255 255 
-0.0996841 -0.467066 0.099166 -0.0417639 0.394147 -0.918098 255 255 255 255 
0.30839 -0.466148 -0.258514 -0.411924 0.736421 0.536659 255 255 255 255 
0.327045 -0.466173 -0.00704125 0.443062 0.881636 0.162522 255 255 255 255 
-0.00535667 -0.465439 0.145825 -0.0248556 0.907019 -0.420355 255 255 255 255 
0.19874 -0.458077 -0.43726 0.0389922 0.974032 0.223029 255 255 255 255 
0.278721 -0.381576 -0.0187256 0.901662 -0.387512 0.191937 255 255 255 255 
0.0965927 -0.355692 0.202692 0.249339 -0.737525 -0.627604 255 255 255 255 
-0.128523 -0.46481 0.111137 -0.346992 -0.395832 0.850243 255 255 255 255 
0.453668 -0.3923 -0.0719875 -0.849677 -0.289179 -0.440937 255 255 255 255 
-0.16947 -0.347975 0.0840079 0.249683 -0.930653 -0.267476 255 255 255 255 
0.212044 -0.381422 -0.434282 -0.33395 -0.241905 0.911021 255 255 255 255 
-0.288872 -0.463561 0.0826982 -0.514928 0.829409 0.216634 255 255 255 255 
0.445461 -0.387898 -0.0426273 -0.874922 -0.123307 -0.468302 255 255 255 255 
-0.446775 -0.346148 -0.0633782 -0.199105 -0.976282 0.0850368 255 255 255 255 
0.169298 -0.458853 0.186198 -0.466292 0.802719 -0.37177 255 255 255 255 
-0.0226535 -0.431086 0.109545 0.0256312 -0.0873206 0.995851 255 255 255 255 
0.116156 -0.48914 0.156446 -0.952021 0.123939 0.279813 255 255 255 255 
-0.248688 -0.464464 0.0671368 0.196982 0.965632 0.169565 255 255 255 255 
-0.189801 -0.352452 -0.420673 -0.76571 -0.344899 -0.542894 255 255 255 255 
-0.452989 -0.373093 -0.0428303 0.873595 0.0359058 -0.485327 255 255 255 255 
0.276736 -0.461694 -0.344673 -0.00231287 0.950843 0.309665 255 255 255 255 
-0.274821 -0.459859 -0.344505 0.575063 -0.087154 0.813453 255 255 255 255 
-0.127639 -0.466839 0.148603 0.144403 0.969688 0.197111 255 255 255 255 
-0.268883 -0.352917 0.0145102 0.495955 -0.15385 0.85461 255 255 255 255 
-0.418514 -0.424155 -0.292504 0.471312 0.220019 0.854082 255 255 255 255 
-0.468418 -0.4351 -0.144037 0.928166 0.0603187 0.367245 255 255 255 255 
-0.392229 -0.34396 0.0511857 0.138963 -0.949808 -0.280274 255 255 255 255 
0.0901895 -0.453826 -0.418743 -0.167536 0.973619 0.154913 255 255 255 255 
-0.296867 -0.407351 -0.218053 -0.286198 0.554992 -0.781073 255 255 255 255 
-0.338003 -0.463575 -0.195443 -0.248477 0.934004 0.256702 255 255 255 255 
-0.0432327 -0.355856 0.101445 -0.246006 0.195324 0.949384 255 255 255 255 
-0.320738 -0.460968 -0.071319 0.414403 0.750003 0.515524 255 255 255 255 
0.0649831 -0.441665 -0.468559 0.15713 -0.349541 0.923651 255 255 255 255 
-0.0605477 -0.346216 0.105944 -0.232527 -0.436401 0.869187 255 255 255 255 
0.452881 -0.402268 -0.0721938 -0.852955 0.262673 -0.451077 255 255 255 255 
-0.233977 -0.401752 -0.300875 -0.395371 0.872598 0.286801 255 255 255 255 
-0.315838 -0.424763 -0.390628 0.825163 0.223506 0.518798 255 255 255 255 
0.200108 -0.400116 -0.442753 -0.383656 -0.0775135 0.920217 255 255 255 255 
0.0197969 -0.445076 0.103409 0.295314 0.594431 -0.747959 255 255 255 255 
-0.229445 -0.43881 0.167405 0.340727 0.0210993 -0.939925 255 255 255 255 
0.252335 -0.359575 0.151985 -0.639912 -0.19656 -0.742884 255 255 255 255 
0.11711 -0.391406 0.201783 0.748749 0.0111193 -0.662761 255 255 255 255 
0.121031 -0.34989 0.160503 -0.22422 -0.948794 -0.222519 255 255 255 255 
0.102725 -0.427244 0.201339 -0.686571 -0.479652 -0.546401 255 255 255 255 
-0.149976 -0.464163 0.121546 -0.526282 0.778311 -0.342431 255 255 255 255 
0.110861 -0.498866 0.130932 -0.868321 0.387908 0.309106 255 255 255 255 
0.234596 -0.378293 0.159447 -0.186412 -0.0507341 -0.981161 255 255 255 255 
-0.140499 -0.370277 0.0840738 -0.0723624 -0.474431 0.877313 255 255 255 255 
-0.258926 -0.422517 -0.274486 -0.604357 -0.396591 -0.690991 255 255 255 255 
-0.118079 -0.461081 -0.357943 -0.212282 0.973095 0.0895685 255 255 255 255 
0.15492 -0.355316 -0.338419 0.401256 0.000811008 -0.915965 255 255 255 255 
0.413493 -0.414581 -0.2836 -0.676213 0.117561 0.727266 255 255 255 255 
-0.228332 -0.352137 -0.416355 0.132338 -0.976088 0.172452 255 255 255 255 
-0.260537 -0.434215 -0.423758 0.57264 -0.0160128 0.819651 255 255 255 255 
0.200856 -0.347732 -0.358857 -0.394044 -0.904182 -0.164875 255 255 255 255 
0.0431586 -0.453161 -0.372406 0.37898 -0.00254189 -0.925402 255 255 255 255 
0.263132 -0.364489 -0.269339 0.742988 0.092912 -0.662824 255 255 255 255 
0.115379 -0.425305 0.0859092 0.309054 -0.854339 -0.417839 255 255 255 255 
-0.0849284 -0.464962 -0.468678 0.0639774 0.882755 0.465458 255 255 255 255 
-0.344491 -0.349339 -0.296319 0.163111 -0.986518 -0.013312 255 255 255 255 
-0.371206 -0.451714 0.0763963 0.783906 -0.272464 -0.557903 255 255 255 255 
-0.374442 -0.428105 0.0733225 0.68396 0.334295 -0.648418 255 255 255 255 
-0.170725 -0.44178 -0.454354 0.276621 -0.372879 0.885687 255 255 255 255 
0.103872 -0.382559 0.203755 0.356724 -0.373688 -0.856216 255 255 255 255 
-0.177233 -0.388091 -0.451948 0.134059 0.0989819 0.986018 255 255 255 255 
0.35477 -0.37897 -0.34977 -0.605778 -0.0651118 0.792965 255 255 255 255 
0.220282 -0.35197 0.132921 0.207071 -0.927589 -0.310966 255 255 255 255 
0.387059 -0.427009 0.0773018 -0.644859 0.517619 0.562341 255 255 255 255 
-0.431628 -0.465867 -0.0386508 0.280798 0.94817 0.148748 255 255 255 255 
0.080586 -0.351337 -0.466257 -0.514059 -0.556712 0.652545 255 255 255 255 
0.0551715 -0.423917 -0.370932 0.677219 -0.132422 -0.723767 255 255 255 255 
0.160249 -0.351677 -0.455155 0.0906981 -0.626273 0.77431 255 255 255 255 
-0.0667717 -0.350717 -0.379653 -0.0213721 -0.958628 -0.283859 255 255 255 255 
-0.180974 -0.445578 -0.334784 -0.227744 -0.152747 -0.961666 255 255 255 255 
-0.142692 -0.461619 0.164908 -0.0204131 0.692612 -0.721021 255 255 255 255 
0.319634 -0.460761 -0.226597 0.374766 0.921426 -0.102593 255 255 255 255 
-0.33468 -0.462331 -0.168226 -0.0745436 0.718581 0.691436 255 255 255 255 
0.15183 -0.402759 0.0743896 -0.956207 0.156256 -0.247493 255 255 255 255 
0.347216 -0.463688 -0.346118 0.342335 0.863158 -0.371166 255 255 255 255 
0.166482 -0.35013 -0.392986 -0.23282 -0.967468 0.0989963 255 255 255 255 
-0.392099 -0.460364 -0.199536 0.927658 0.307521 -0.211852 255 255 255 255 
0.45628 -0.382175 -0.0848476 -0.996871 0.0145477 -0.0776974 255 255 255 255 
0.236168 -0.419914 -0.426524 -0.367552 0.0687244 0.92746 255 255 255 255 
0.383563 -0.349211 -0.157342 -0.022415 -0.999743 -0.00329746 255 255 255 255 
-0.43702 -0.351187 -0.141191 0.449292 -0.879321 -0.157899 255 255 255 255 
0.377218 -0.352518 -0.220118 0.174302 -0.98006 0.0953952 255 255 255 255 
-0.0289401 -0.464726 0.104159 -0.00264805 0.962391 0.271656 255 255 255 255 
0.250882 -0.466631 0.0241687 -0.14316 0.987566 -0.0649521 255 255 255 255 
-0.036611 -0.463938 -0.4449 -0.779634 0.567181 -0.265475 255 255 255 255 
0.213019 -0.384665 0.0526131 0.644102 0.261309 0.718923 255 255 255 255 
0.285101 -0.445912 0.131968 -0.466534 0.0239293 -0.88418 255 255 255 255 
-0.333982 -0.346236 0.066157 -0.212774 -0.976145 0.0432135 255 255 255 255 
-0.394501 -0.467567 -0.23776 0.123111 0.980635 -0.152312 255 255 255 255 
0.273825 -0.454084 0.146218 -0.306448 0.874829 -0.375184 255 255 255 255 
-0.226233 -0.34953 -0.370728 -0.0461412 -0.997557 0.0524488 255 255 255 255 
0.448376 -0.349735 -0.0920364 -0.510085 -0.857697 -0.0645714 255 255 255 255 
-0.2484 -0.346257 0.0344957 -0.115176 -0.923271 -0.366478 255 255 255 255 
0.264001 -0.462158 0.0410259 0.0112426 0.992874 -0.118641 255 255 255 255 
-0.360482 -0.463924 0.0343459 -0.17384 0.94063 0.291539 255 255 255 255 
0.402553 -0.43783 0.0421498 0.718611 -0.694991 -0.0242131 255 255 255 255 
0.408497 -0.343851 -0.081575 0.814363 -0.50739 -0.281724 255 255 255 255 
0.197397 -0.3889 -0.437659 -0.342478 0.282712 0.895981 255 255 255 255 
0.320174 -0.405269 -0.089717 0.743185 -0.193775 0.640412 255 255 255 255 
0.125861 -0.362361 0.19924 -0.54414 0.0172265 -0.838818 255 255 255 255 
-0.220874 -0.460722 0.171108 0.474942 0.0733598 -0.876954 255 255 255 255 
-0.313132 -0.350927 -0.32751 0.583118 -0.796154 -0.161595 255 255 255 255 
0.414769 -0.351093 -0.101885 0.466953 -0.618593 0.631901 255 255 255 255 
0.359826 -0.467245 -0.059828 -0.18307 0.969857 -0.160819 255 255 255 255 
-0.442862 -0.367334 -0.24415 0.951181 0.253385 0.176212 255 255 255 255 
-0.0640219 -0.436507 0.206248 0.260078 0.218437 -0.940555 255 255 255 255 
0.251268 -0.463007 -0.368955 0.267774 0.395213 -0.878694 255 255 255 255 
-0.38426 -0.451306 -0.0872221 -0.498804 0.863148 0.0785508 255 255 255 255 
-0.0849396 -0.465903 0.177496 -0.262918 0.948224 -0.178172 255 255 255 255 
0.239176 -0.426489 -0.423233 -0.230573 0.114769 0.966263 255 255 255 255 
-0.461244 -0.375447 -0.18997 0.797945 -0.437342 -0.414748 255 255 255 255 
-0.357202 -0.352629 0.0910642 0.514123 0.292388 -0.806342 255 255 255 255 
-0.359126 -0.346029 -0.273694 -0.314232 -0.928416 -0.198248 255 255 255 255 
-0.16955 -0.463414 0.173619 0.879494 -0.474712 0.0337317 255 255 255 255 
0.295521 -0.351584 -0.310545 0.120956 -0.970491 -0.208609 255 255 255 255 
-0.241855 -0.461339 -0.295743 -0.245935 0.901525 -0.356046 255 255 255 255 
0.374621 -0.460861 -0.333549 -0.639705 -0.0649976 0.765867 255 255 255 255 
-0.354629 -0.345526 -0.109266 -0.3546 -0.866038 -0.352472 255 255 255 255 
0.208103 -0.461598 -0.361969 0.374946 0.925767 0.0486862 255 255 255 255 
0.404631 -0.315682 0.0147674 0.403023 -0.586713 -0.702382 255 255 255 255 
0.122666 -0.434761 0.194626 0.0840099 -0.0904833 -0.992348 255 255 255 255 
-0.331005 -0.46446 -0.221155 0.0629006 0.995276 -0.0739606 255 255 255 255 
0.245855 -0.347925 0.0505261 -0.398364 -0.914765 -0.0671628 255 255 255 255 
-0.263645 -0.460892 0.108876 0.585263 0.80688 -0.0800724 255 255 255 255 
0.312408 -0.422011 -0.386222 -0.713033 -0.148555 0.685212 255 255 255 255 
0.286415 -0.34938 0.105418 -0.406815 -0.903421 0.135398 255 255 255 255 
-0.280263 -0.462201 -0.35472 -0.150888 0.872691 -0.464374 255 255 255 255 
-0.300465 -0.427373 -0.391916 -0.224242 -0.548122 0.805778 255 255 255 255 
-0.470801 -0.399017 -0.171352 0.960584 -0.136833 -0.24198 255 255 255 255 
0.134991 -0.364948 0.0795512 0.19941 0.202647 0.958733 255 255 255 255 
-0.218543 -0.466298 0.10492 0.119819 0.91909 -0.375389 255 255 255 255 
-0.145035 -0.357163 0.191343 0.248732 -0.29758 -0.921726 255 255 255 255 
0.462562 -0.408139 -0.121867 -0.950427 -0.171651 0.259277 255 255 255 255 
0.053014 -0.463516 -0.460541 -0.167862 0.956918 -0.236919 255 255 255 255 
-0.367984 -0.429169 -0.340177 0.768048 0.262932 0.583926 255 255 255 255 
0.148074 -0.352095 0.12608 -0.223524 -0.972336 -0.0678196 255 255 255 255 
0.226318 -0.345395 0.144677 -0.140942 -0.949061 0.281812 255 255 255 255 
-0.190554 -0.418464 -0.450088 0.21747 -0.274592 0.936646 255 255 255 255 
-0.286523 -0.464637 0.0688032 0.0819013 0.962032 -0.260359 255 255 255 255 
-0.0919071 -0.458312 -0.472733 0.0870994 0.0414888 0.995335 255 255 255 255 
0.353872 -0.467207 -0.320565 0.173361 0.975618 0.134594 255 255 255 255 
0.441106 -0.367714 -0.0331947 -0.880816 -0.297336 -0.36845 255 255 255 255 
0.304041 -0.433289 -0.0582013 0.980143 -0.0802896 -0.181311 255 255 255 255 
0.333248 -0.350937 0.0308478 -0.280285 -0.874297 -0.39629 255 255 255 255 
-0.00349751 -0.327831 -0.456071 -0.844166 -0.487855 -0.222218 255 255 255 255 
-0.158333 -0.394273 0.191321 0.0863844 0.0842731 -0.992691 255 255 255 255 
-0.0827779 -0.344833 -0.414806 0.0569858 -0.742246 -0.6677 255 255 255 255 
-0.0363455 -0.447371 0.214275 -0.761108 0.0611243 -0.645739 255 255 255 255 
0.0571964 -0.349124 -0.455287 -0.0706767 -0.992587 0.0988754 255 255 255 255 
0.105249 -0.395522 0.200566 -0.693533 -0.427724 0.57971 255 255 255 255 
0.0985013 -0.403728 0.0943376 0.553888 -0.0285521 0.832102 255 255 255 255 
0.230608 -0.449839 -0.426464 -0.455932 -0.152252 0.876895 255 255 255 255 
-0.269012 -0.360152 -0.382432 -0.706765 -0.7074 -0.00826799 255 255 255 255 
-0.16679 -0.461677 0.152875 0.192291 0.915904 -0.35234 255 255 255 255 
0.0367904 -0.393501 -0.371277 0.0873758 -0.308786 -0.94711 255 255 255 255 
0.270116 -0.459417 -0.00866982 0.755755 0.131655 0.641483 255 255 255 255 
0.336979 -0.352583 -0.346457 -0.443393 -0.889623 0.109421 255 255 255 255 
0.224587 -0.355699 -0.432163 -0.228323 -0.346577 0.909809 255 255 255 255 
-0.115276 -0.432355 -0.35788 -0.0321151 -0.0682004 -0.997155 255 255 255 255 
-0.0413152 -0.458101 -0.472433 0.167265 0.438944 0.882808 255 255 255 255 
0.166988 -0.447435 -0.425688 -0.401381 0.19844 0.894156 255 255 255 255 
-0.0979304 -0.441851 0.179065 -0.090519 0.275615 -0.956997 255 255 255 255 
0.454208 -0.423211 -0.0638987 -0.898419 -0.425483 0.108666 255 255 255 255 
-0.358637 -0.443058 0.0921116 0.683904 0.225796 -0.693751 255 255 255 255 
-0.409927 -0.455831 -0.305827 0.640621 0.131658 0.756486 255 255 255 255 
-0.411719 -0.346774 -0.0137456 -0.489152 -0.842718 0.224849 255 255 255 255 
0.075269 -0.412169 -0.466244 0.178465 -0.124359 0.976056 255 255 255 255 
0.236225 -0.403806 -0.294108 0.581051 0.0254344 -0.81347 255 255 255 255 
-0.0563239 -0.371732 0.209172 -0.0603207 -0.410007 -0.910086 255 255 255 255 
-0.0072163 -0.373903 0.107065 -0.115851 -0.0247435 0.992958 255 255 255 255 
-0.103504 -0.465905 -0.412653 0.00739638 0.999467 -0.0318068 255 255 255 255 
0.219353 -0.343707 -0.308251 0.498061 0.342153 -0.796785 255 255 255 255 
-0.0276027 -0.466088 0.142191 0.156999 0.862952 -0.480276 255 255 255 255 
-0.385803 -0.343829 -0.0256633 0.216313 -0.970595 0.10561 255 255 255 255 
-0.0211911 -0.374813 0.106915 0.0670714 0.275727 0.958893 255 255 255 255 
-0.305869 -0.418521 -0.220565 -0.835443 0.106598 -0.53914 255 255 255 255 
0.040974 -0.464488 -0.435135 -0.299585 0.66463 0.684483 255 255 255 255 
-0.146455 -0.455257 0.190527 0.383548 0.118656 -0.915866 255 255 255 255 
0.432523 -0.39606 -0.259551 -0.880618 -0.0607515 0.469916 255 255 255 255 
-0.11811 -0.351437 0.121632 -0.0536323 -0.989249 -0.136051 255 255 255 255 
-0.383683 -0.346325 -0.200761 0.251747 -0.852439 -0.458227 255 255 255 255 
-0.0805561 -0.344209 -0.401975 -0.203391 -0.972593 0.112676 255 255 255 255 
-0.198222 -0.377163 0.178838 0.194751 0.223857 -0.954966 255 255 255 255 
0.360991 -0.447778 -0.215903 0.167468 0.838647 0.518292 255 255 255 255 
0.377205 -0.348395 -0.328175 0.0628037 -0.997934 0.0135138 255 255 255 255 
-0.23636 -0.464119 0.142486 0.195746 0.941006 0.276026 255 255 255 255 
-0.470512 -0.461609 -0.119859 0.891539 0.409468 -0.193637 255 255 255 255 
-0.17722 -0.442223 -0.446453 0.840685 -0.158915 0.517683 255 255 255 255 
0.319601 -0.392844 -0.167109 0.993863 -0.00760018 -0.110353 255 255 255 255 
0.387573 -0.34604 -0.0123574 -0.726015 -0.321623 -0.607833 255 255 255 255 
0.336146 -0.347945 0.0385655 -0.291722 -0.913305 0.284204 255 255 255 255 
-0.00970376 -0.465538 0.188042 0.253998 0.809531 -0.529287 255 255 255 255 
-0.159307 -0.346411 -0.3591 -0.327181 -0.944618 -0.0254934 255 255 255 255 
-0.328253 -0.451139 0.115208 0.503839 0.109679 -0.856806 255 255 255 255 
-0.318382 -0.360378 -0.0707678 -0.985137 0.134967 0.106248 255 255 255 255 
0.105637 -0.410303 -0.359243 0.179517 -0.0168689 -0.98361 255 255 255 255 
0.280381 -0.345111 -0.357394 -0.0591629 -0.8826 -0.466387 255 255 255 255 
-0.350984 -0.465503 -0.00652966 -0.0452012 0.994021 -0.0993898 255 255 255 255 
-0.238445 -0.343487 0.0327616 -0.443072 -0.775776 0.449287 255 255 255 255 
0.188075 -0.426825 -0.324562 0.393548 -0.0494562 -0.917973 255 255 255 255 
-0.352227 -0.466094 -0.0327106 0.619612 0.713011 0.328171 255 255 255 255 
0.345649 -0.461764 -0.0463671 0.0962664 0.892229 0.441203 255 255 255 255 
0.365269 -0.459239 -0.199778 0.682629 0.185278 0.706887 255 255 255 255 
-0.28764 -0.345943 -0.372561 -0.313294 -0.895033 0.317432 255 255 255 255 
0.373463 -0.435219 -0.150698 -0.263305 0.964135 0.0333663 255 255 255 255 
-0.413941 -0.464892 -0.282842 -0.412513 0.896846 -0.159687 255 255 255 255 
-0.0931049 -0.352823 0.137041 -0.220865 -0.912796 0.343543 255 255 255 255 
-0.312804 -0.312027 0.115967 -0.900857 0.182505 0.39389 255 255 255 255 
-0.107905 -0.443567 -0.468869 0.152609 -0.132282 0.979394 255 255 255 255 
-0.41433 -0.425378 0.0285228 0.840563 0.0870473 -0.534674 255 255 255 255 
-0.369757 -0.444145 0.0779455 0.515123 0.222327 -0.82778 255 255 255 255 
-0.061373 -0.350105 0.171556 0.0406063 -0.980309 0.193248 255 255 255 255 
0.107496 -0.420598 -0.354603 0.0149351 -0.261591 -0.965063 255 255 255 255 
-0.447282 -0.460698 -0.190031 -0.0621298 0.991804 -0.111649 255 255 255 255 
0.440665 -0.351899 -0.0782189 0.0357729 -0.974242 -0.222651 255 255 255 255 
-0.0473198 -0.467883 0.150816 0.117732 0.989797 0.0802534 255 255 255 255 
-0.112456 -0.45902 -0.399496 0.0272492 0.99869 -0.0433087 255 255 255 255 
