ply
format ascii 1.0
comment VCGLIB generated
element vertex 643
property float x
property float y
property float z
property float nx
property float ny
property float nz
property uchar red
property uchar green
property uchar blue
property uchar alpha
element face 0
property list uchar int vertex_indices
end_header
-0.463274 -0.908951 0.84034 0.256986 -0.701876 -0.664326 255 255 255 255 
-0.35829 -0.719178 0.00684929 0.24198 -0.833997 -0.495877 255 255 255 255 
0.162494 0.211502 -0.874941 0.910676 0.0690583 -0.407308 255 255 255 255 
-0.859471 0.682452 0.931271 -0.92083 -0.293645 -0.256603 255 255 255 255 
0.0800661 0.0709731 -0.950638 0.524469 -0.309908 -0.793026 255 255 255 255 
-0.261101 -0.142773 -0.572154 -0.504669 0.428938 -0.749214 255 255 255 255 
-0.260392 -0.544048 -0.585971 -0.00133089 -0.5485 -0.836149 255 255 255 255 
-0.265116 -0.500945 0.172768 0.991458 0.0942724 0.090132 255 255 255 255 
-0.398677 -0.169934 -0.475791 -0.645388 0.461481 -0.608695 255 255 255 255 
-0.625177 0.0118092 0.450165 0.188247 0.64363 -0.741824 255 255 255 255 
-0.644544 -0.924658 0.532003 0.289976 -0.956938 -0.0135334 255 255 255 255 
-0.294875 -0.0192489 -0.485002 -0.526773 0.221806 -0.820556 255 255 255 255 
-0.323925 -0.73512 0.0609353 0.49634 -0.751662 -0.434341 255 255 255 255 
0.127893 0.340812 -0.768777 0.661045 0.728544 0.179565 255 255 255 255 
-0.206778 0.294048 -0.500827 -0.306101 -0.144409 -0.940983 255 255 255 255 
-0.176429 -0.594237 -0.318847 0.246724 -0.968747 0.0256103 255 255 255 255 
-0.884743 -0.976854 0.95111 -0.172719 -0.978784 0.11023 255 255 255 255 
-0.381554 -0.523146 -0.315305 -0.843682 -0.439194 -0.308724 255 255 255 255 
-0.815777 -0.975083 0.820028 0.260244 -0.938425 -0.227227 255 255 255 255 
-0.410014 -0.374114 -0.466344 -0.611519 -0.534374 -0.583514 255 255 255 255 
0.331837 0.681034 -0.962093 0.494158 0.751072 -0.437835 255 255 255 255 
-0.0873878 0.351441 -0.821209 -0.631341 0.767246 -0.112882 255 255 255 255 
-0.409896 -0.514525 -0.250709 -0.858275 -0.279029 -0.430705 255 255 255 255 
0.373406 0.60333 -0.962329 0.780266 0.353352 -0.516069 255 255 255 255 
-0.914266 0.990907 0.96351 -0.384485 0.842594 -0.377103 255 255 255 255 
-0.461738 -0.209376 0.43753 0.938187 0.336437 -0.0813332 255 255 255 255 
-0.866675 0.775862 0.901512 -0.613907 -0.0882502 -0.78443 255 255 255 255 
-0.798181 0.462211 0.742678 -0.585266 0.30579 -0.750971 255 255 255 255 
-0.405999 -0.424185 -0.386514 -0.865972 -0.457599 -0.201729 255 255 255 255 
0.123996 -0.421941 -0.688238 0.377319 -0.713552 -0.590316 255 255 255 255 
-0.573099 -0.271729 0.2376 -0.213159 0.524495 -0.824299 255 255 255 255 
-0.398795 -0.805621 0.133916 0.140034 -0.854092 -0.500917 255 255 255 255 
-0.421705 -0.291214 0.35333 0.767241 0.637454 -0.0706653 255 255 255 255 
-0.13864 0.170879 -0.862896 -0.905778 -0.0622964 -0.419148 255 255 255 255 
-0.644308 -0.00850259 0.431389 0.0354615 0.595671 -0.802446 255 255 255 255 
-0.681625 0.480751 0.807038 0.859406 0.452759 -0.237549 255 255 255 255 
-0.324988 -0.606637 -0.27846 -0.387476 -0.843634 -0.371677 255 255 255 255 
-0.281058 -0.733113 0.256731 0.935022 -0.314688 0.163416 255 255 255 255 
-0.366084 -0.479452 -0.53035 1 0 0 255 255 255 255 
-0.15777 0.45052 -0.528106 -0.858049 0.24097 -0.453525 255 255 255 255 
-0.69804 -0.231105 0.420997 -0.978164 -0.130027 -0.162133 255 255 255 255 
-0.741616 0.0419225 0.570737 -0.974191 -0.0139259 -0.225293 255 255 255 255 
-0.322981 -0.799835 0.20855 0.656414 -0.739136 -0.150992 255 255 255 255 
-0.401393 -0.824634 0.173004 0.195832 -0.902963 -0.382503 255 255 255 255 
-0.580657 -0.206424 0.293812 0.0301917 0.573898 -0.81837 255 255 255 255 
-0.263462 -0.625768 0.19367 0.99006 0.0335241 0.136589 255 255 255 255 
-0.505314 -0.882853 0.30137 0.0873785 -0.97363 -0.210737 255 255 255 255 
-0.110298 -0.572508 -0.486065 0.226532 -0.945323 -0.234621 255 255 255 255 
-0.424303 -0.408479 -0.27787 -0.976119 -0.17284 -0.131597 255 255 255 255 
-0.0471186 0.372697 -0.833963 -0.344487 0.929731 -0.130115 255 255 255 255 
-0.439773 -0.805031 0.127303 0.0710785 -0.776672 -0.625883 255 255 255 255 
-0.0953 0.348725 -0.782357 -0.670516 0.737198 -0.0833517 255 255 255 255 
0.0843174 0.771256 -0.649386 -0.348334 0.852417 0.389935 255 255 255 255 
0.318729 0.246339 -0.962447 0.309576 -0.209856 -0.927428 255 255 255 255 
-0.100378 0.360179 -0.695087 -0.452087 0.788743 -0.416536 255 255 255 255 
0.03094 -0.490553 -0.621044 0.129497 -0.837982 -0.53011 255 255 255 255 
-0.783302 0.776453 0.915446 0.742214 0.336874 -0.57934 255 255 255 255 
-0.387695 -0.119036 -0.410723 -0.781897 0.483903 -0.393033 255 255 255 255 
-0.276098 -0.602385 -0.336561 -0.13772 -0.985738 -0.0967104 255 255 255 255 
-0.209967 -0.605928 -0.337624 0.102495 -0.993908 -0.0405159 255 255 255 255 
-0.893245 -0.986065 0.744213 1 0 0 255 255 255 255 
-0.315777 -0.501299 -0.590222 -0.38914 -0.185011 -0.902408 255 255 255 255 
-0.236183 -0.550307 -0.580066 0.065846 -0.63763 -0.767524 255 255 255 255 
0.235002 0.814714 -0.809754 0.186375 0.936858 -0.295909 255 255 255 255 
-0.20418 -0.215635 -0.637695 -0.549953 0.0806549 -0.831292 255 255 255 255 
-0.056684 -0.488427 -0.627185 -0.0599928 -0.714281 -0.697283 255 255 255 255 
-0.0851441 -0.538262 -0.555503 0.109221 -0.868743 -0.48307 255 255 255 255 
-0.348607 -0.547709 -0.368446 -0.755466 -0.648328 -0.0945588 255 255 255 255 
-0.665683 0.135805 0.52291 -0.0917137 0.549744 -0.830283 255 255 255 255 
-0.607109 0.203944 0.643481 0.816391 0.42999 -0.385505 255 255 255 255 
-0.656589 0.0134625 0.437884 0.0469793 0.610749 -0.790429 255 255 255 255 
-0.0292868 0.0504251 -0.941427 -0.354763 -0.466303 -0.810373 255 255 255 255 
-0.0945914 0.292513 -0.906235 -0.753642 0.36862 -0.544191 255 255 255 255 
-0.363014 -0.489017 -0.543576 -0.953847 -0.0478158 -0.296462 255 255 255 255 
-0.453944 -0.672178 -0.0493623 -0.477986 -0.679834 -0.556196 255 255 255 255 
-0.363604 -0.464809 -0.539797 -0.922071 0.104593 -0.372619 255 255 255 255 
-0.431861 -0.735711 0.0220831 -0.157961 -0.788941 -0.593818 255 255 255 255 
-0.514998 -0.152929 0.37376 0.605788 0.594049 -0.52927 255 255 255 255 
-0.254251 -0.603448 -0.341639 0.0170856 -0.994343 -0.104836 255 255 255 255 
-0.445442 -0.800661 0.119391 -0.0750339 -0.809749 -0.581959 255 255 255 255 
0.0354275 0.348252 -0.675366 0.379428 0.802214 0.460964 255 255 255 255 
-0.647851 -0.260983 0.301134 -0.867459 -0.129833 -0.48027 255 255 255 255 
-0.425248 -0.394898 -0.355692 -0.839766 -0.540852 -0.0476657 255 255 255 255 
0.387222 0.524681 -0.960439 0.824737 0.0233463 -0.565034 255 255 255 255 
0.120335 -0.434931 -0.668163 0.398823 -0.758548 -0.51531 255 255 255 255 
-0.766415 0.285309 0.645725 -0.582415 0.199192 -0.788109 255 255 255 255 
-0.743859 -0.953472 0.816722 0.241528 -0.799275 -0.550295 255 255 255 255 
-0.410841 -0.552787 -0.233585 -0.777171 -0.411416 -0.476175 255 255 255 255 
-0.689301 -0.959849 0.859707 0.22426 -0.936421 -0.269857 255 255 255 255 
-0.309636 -0.635097 -0.181035 0.0840177 -0.964288 -0.251178 255 255 255 255 
0.343765 0.143481 -0.853212 0.974194 -0.192397 0.118024 255 255 255 255 
-0.606401 -0.250354 0.272555 -0.597043 0.595424 -0.537597 255 255 255 255 
-0.801016 -0.885569 0.481696 -0.636372 -0.533878 -0.556782 255 255 255 255 
-0.295938 -0.0279877 -0.491143 -0.567376 0.312995 -0.761655 255 255 255 255 
0.0442843 -0.0497166 -0.775508 0.436166 -0.898734 -0.0451317 255 255 255 255 
-0.259329 -0.877067 0.894426 0.287716 -0.918346 -0.271773 255 255 255 255 
-0.548299 -0.783538 0.157416 -0.570515 -0.566886 -0.594267 255 255 255 255 
0.102858 0.364785 -0.788026 0.428116 0.90319 0.0310631 255 255 255 255 
-0.399032 -0.494332 -0.294757 -0.900827 -0.286685 -0.326071 255 255 255 255 
-0.251181 0.194969 -0.468115 -0.78955 0.220398 -0.572744 255 255 255 255 
-0.338923 -0.897851 0.92324 0.223043 -0.974491 -0.0248991 255 255 255 255 
-0.0329476 0.380373 -0.656235 0.239124 0.958138 -0.157452 255 255 255 255 
-0.376358 -0.323571 -0.135687 -0.460083 0.8164 0.349019 255 255 255 255 
-0.210439 -0.598961 -0.382853 0.092675 -0.993115 -0.0716467 255 255 255 255 
-0.395725 -0.811053 0.143718 0.179817 -0.869546 -0.459952 255 255 255 255 
-0.565541 -0.90222 0.401275 0.151158 -0.98637 -0.0650057 255 255 255 255 
0.21965 -0.281176 -0.728035 0.854957 -0.485689 -0.182083 255 255 255 255 
-0.00153522 0.370454 -0.882853 -0.107851 0.96096 -0.254802 255 255 255 255 
0.246811 -0.0105101 -0.903519 0.308016 -0.327922 -0.89308 255 255 255 255 
0.170288 0.819084 -0.742796 -0.0825269 0.991979 0.0957415 255 255 255 255 
-0.433278 -0.377893 -0.411431 -0.723756 -0.625366 -0.29171 255 255 255 255 
-0.12317 -0.571327 -0.498111 0.171973 -0.957026 -0.23351 255 255 255 255 
-0.253189 -0.61325 -0.248583 0.202382 -0.969102 -0.141007 255 255 255 255 
-0.315068 -0.585853 -0.333255 -0.514389 -0.830418 -0.214034 255 255 255 255 
-0.0843174 0.35333 -0.720359 -0.382845 0.818617 -0.428131 255 255 255 255 
-0.423595 -0.409188 -0.277988 -0.979325 -0.104138 -0.17343 255 255 255 255 
0.36136 0.36632 -0.961148 0.647144 -0.201182 -0.735344 255 255 255 255 
-0.723902 0.189183 0.572981 -0.584837 0.295155 -0.755545 255 255 255 255 
-0.850496 -0.982995 0.82428 0.127808 -0.989004 -0.0744042 255 255 255 255 
0.197685 0.81743 -0.799835 -0.0527664 0.983277 -0.174302 255 255 255 255 
0.31932 0.67572 -0.971894 0.370297 0.239192 -0.89759 255 255 255 255 
-0.639348 -0.946741 0.947921 1 0 0 255 255 255 255 
-0.70418 -0.916391 0.432452 -0.165107 -0.91543 -0.367053 255 255 255 255 
-0.540269 -0.045111 0.459849 0.702503 0.559668 -0.439615 255 255 255 255 
-0.723311 0.564242 0.822154 0.764337 0.463299 -0.448489 255 255 255 255 
-0.326405 -0.549717 -0.571918 -0.392663 -0.571166 -0.720822 255 255 255 255 
-0.787199 0.420879 0.717171 -0.647977 0.307236 -0.696944 255 255 255 255 
-0.254488 0.0645961 -0.483585 -0.181016 -0.02357 -0.983198 255 255 255 255 
-0.714336 0.536372 0.804086 0.737073 0.473952 -0.481761 255 255 255 255 
-0.679972 0.0983704 0.507912 -0.113343 0.593546 -0.796779 255 255 255 255 
-0.438474 -0.385215 -0.156944 -0.883704 0.429939 -0.184983 255 255 255 255 
-0.500472 -0.884624 0.402456 0.319133 -0.946262 0.052367 255 255 255 255 
-0.450283 -0.520666 -0.184223 -0.885613 -0.368162 -0.283101 255 255 255 255 
0.238191 -0.226854 -0.753661 0.879598 -0.460069 -0.121014 255 255 255 255 
0.195442 -0.329358 -0.679499 0.931553 -0.3394 0.130446 255 255 255 255 
0.0140529 0.357227 -0.652102 0.597211 0.800391 0.0520856 255 255 255 255 
-0.683632 -0.115139 0.385215 -0.789721 0.17714 -0.587335 255 255 255 255 
0.116675 0.35026 -0.763935 0.60187 0.769466 0.213716 255 255 255 255 
-0.325224 -0.661195 -0.0988427 0.192243 -0.916597 -0.350559 255 255 255 255 
0.0495985 -0.811171 0.893717 0.192001 -0.979593 -0.0594451 255 255 255 255 
0.0748701 0.364549 -0.856637 0.36097 0.9149 -0.180715 255 255 255 255 
-0.0577468 0.369036 -0.828295 -0.426769 0.895022 -0.129632 255 255 255 255 
-0.714809 0.165919 0.564124 -0.394955 0.422621 -0.815722 255 255 255 255 
-0.336561 -0.804558 0.187057 0.471376 -0.856954 -0.208409 255 255 255 255 
-0.508148 -0.779759 0.119981 -0.482562 -0.727049 -0.488399 255 255 255 255 
-0.0355456 -0.562707 -0.444379 0.329064 -0.944306 0.00160393 255 255 255 255 
-0.328885 -0.80633 0.207841 0.614825 -0.763484 -0.197693 255 255 255 255 
-0.284601 -0.605692 0.272437 1 0 0 255 255 255 255 
-0.547945 -0.88368 0.313533 -0.000844011 -0.971242 -0.238091 255 255 255 255 
0.349315 0.672296 -0.953118 0.599299 0.719594 -0.350749 255 255 255 255 
-0.473902 -0.253661 0.307274 0.53068 0.799431 -0.281583 255 255 255 255 
-0.457605 -0.284247 0.267005 0.384557 0.869815 -0.309091 255 255 255 255 
-0.347071 -0.158951 -0.521729 -0.651989 0.446921 -0.612513 255 255 255 255 
0.128366 0.304558 -0.901157 0.75997 0.462442 -0.45672 255 255 255 255 
-0.535428 -0.180326 0.328295 0.448909 0.582839 -0.677332 255 255 255 255 
-0.223429 0.22709 -0.486301 -0.0899312 -0.122924 -0.988333 255 255 255 255 
0.388876 0.584435 -0.933751 0.990972 0.111054 -0.0751102 255 255 255 255 
-0.579358 -0.294521 0.226854 -0.469909 0.416649 -0.778197 255 255 255 255 
-0.685522 0.102622 0.503188 -0.129632 0.602157 -0.787783 255 255 255 255 
-0.301134 -0.75 0.128956 0.682346 -0.679135 -0.270516 255 255 255 255 
-0.450165 -0.649386 -0.0803023 -0.530988 -0.648799 -0.545079 255 255 255 255 
-0.320973 -0.798536 0.211384 0.775102 -0.551184 -0.308889 255 255 255 255 
-0.270312 -0.696504 0.226972 0.992976 -0.0993707 0.0642266 255 255 255 255 
-0.747756 -0.829476 0.387104 -0.728156 -0.29058 -0.620767 255 255 255 255 
-0.421587 -0.676075 -0.068257 -0.312934 -0.786229 -0.532837 255 255 255 255 
-0.302905 -0.0186585 -0.479806 -0.649368 0.27397 -0.709409 255 255 255 255 
0.130964 -0.376476 -0.724492 0.293458 -0.652875 -0.69831 255 255 255 255 
0.0984884 0.769131 -0.639821 1 0 0 255 255 255 255 
-0.33231 -0.632381 -0.190482 -0.0928798 -0.945254 -0.312839 255 255 255 255 
0.0341285 -0.0414501 -0.855692 0.192969 -0.902379 -0.385325 255 255 255 255 
0.273028 0.78094 -0.882617 0.290214 0.783483 -0.549482 255 255 255 255 
-0.353566 -0.288852 -0.543812 -0.51087 -0.0884977 -0.855091 255 255 255 255 
-0.743859 0.153165 0.586325 -0.88284 0.0974356 -0.459456 255 255 255 255 
-0.648205 -0.924421 0.452999 0.101066 -0.97763 -0.184459 255 255 255 255 
-0.704062 -0.967997 0.877421 0.17994 -0.97718 -0.112874 255 255 255 255 
-0.106164 0.370335 -0.655645 -0.560057 0.795219 -0.232301 255 255 255 255 
-0.320265 -0.737482 0.0689655 0.523166 -0.736779 -0.428315 255 255 255 255 
-0.35581 -0.0643599 -0.396788 1 0 0 255 255 255 255 
-0.631672 -0.434813 0.277752 -0.953832 -0.205169 -0.21934 255 255 255 255 
-0.372225 -0.0976618 -0.401512 1 0 0 255 255 255 255 
0.263226 0.0458196 -0.920524 0.305653 -0.446384 -0.841022 255 255 255 255 
0.314242 0.301134 -0.971186 0.173176 -0.114465 -0.978217 255 255 255 255 
-0.372225 -0.53342 -0.324162 -0.808716 -0.512645 -0.288398 255 255 255 255 
0.145135 0.305267 -0.86018 0.781727 0.511585 -0.35663 255 255 255 255 
-0.40777 -0.458077 -0.313179 -0.936094 -0.248612 -0.248838 255 255 255 255 
-0.117974 -0.578531 -0.412022 0.286355 -0.958122 -0.00161854 255 255 255 255 
0.121989 0.20914 -0.946386 0.751116 0.0232034 -0.659762 255 255 255 255 
-0.622107 -0.290505 0.264998 -0.824181 0.0109206 -0.566222 255 255 255 255 
-0.460912 -0.565895 -0.145017 -0.78498 -0.310411 -0.536145 255 255 255 255 
-0.600378 0.124823 0.564242 0.634125 0.605548 -0.48083 255 255 255 255 
-0.100142 0.303023 -0.44556 0.925423 -0.374469 0.0580103 255 255 255 255 
0.218351 -0.139702 -0.852622 0.391842 0.0211741 -0.919789 255 255 255 255 
0.129783 -0.175012 -0.826523 -0.682351 -0.0874136 -0.72578 255 255 255 255 
-0.198512 -0.452527 -0.620099 -0.178156 -0.186873 -0.966095 255 255 255 255 
-0.775272 -0.950402 0.555149 -0.0786351 -0.952377 -0.294608 255 255 255 255 
0.29641 0.283892 -0.976972 0.0319331 -0.148496 -0.988397 255 255 255 255 
-0.260864 0.0906944 -0.477326 -0.283869 0.114266 -0.95203 255 255 255 255 
-0.331956 -0.0336561 -0.444025 -0.774325 0.219222 -0.593601 255 255 255 255 
-0.878366 -0.987364 0.768895 1 0 0 255 255 255 255 
-0.745513 0.224492 0.604629 -0.853915 0.0368126 -0.519108 255 255 255 255 
0.231814 0.778932 -0.896434 -0.162199 0.778858 -0.605864 255 255 255 255 
-0.0144072 -0.0268068 -0.880964 -0.275412 -0.764747 -0.582503 255 255 255 255 
0.153401 -0.411431 -0.6423 0.814698 -0.570513 -0.103838 255 255 255 255 
-0.177374 -0.601441 -0.352267 0.165797 -0.986019 -0.0166709 255 255 255 255 
-0.313888 -0.207723 -0.56188 -0.56521 0.153232 -0.810591 255 255 255 255 
0.327704 0.206542 -0.936349 0.714316 -0.351214 -0.605311 255 255 255 255 
-0.545583 -0.31495 0.197803 -0.49496 0.732121 -0.467988 255 255 255 255 
-0.294521 -0.809991 0.852031 0.112814 0.150095 -0.982214 255 255 255 255 
0.347662 0.159188 -0.873051 0.978348 -0.0711561 -0.194352 255 255 255 255 
-0.390647 -0.577704 -0.23512 -0.690492 -0.540009 -0.48126 255 255 255 255 
-0.434695 -0.540033 -0.200874 1 0 0 255 255 255 255 
-0.712801 -0.97154 0.909778 1 0 0 255 255 255 255 
-0.719769 0.141238 0.548536 -0.633977 0.353566 -0.687797 255 255 255 255 
-0.227208 -0.603566 -0.317076 0.0857373 -0.993552 -0.0741888 255 255 255 255 
-0.450165 -0.661195 -0.0661313 -0.489422 -0.674963 -0.552169 255 255 255 255 
-0.392182 -0.605692 -0.1906 -0.579019 -0.655759 -0.484477 255 255 255 255 
-0.423949 -0.440954 -0.252244 -0.97329 -0.101579 -0.205884 255 255 255 255 
-0.0611715 0.370217 -0.795701 -0.405465 0.914109 0.00167044 255 255 255 255 
-0.0498347 -0.475437 -0.640293 -0.12099 -0.64587 -0.7538 255 255 255 255 
0.196504 0.819674 -0.784128 -0.0603851 0.994952 -0.0801537 255 255 255 255 
-0.470123 -0.929263 0.913793 0.169793 -0.98427 0.0488215 255 255 255 255 
0.091521 -0.73264 0.880964 0.27487 0.361496 -0.890936 255 255 255 255 
-0.801252 0.427964 0.738781 -0.920494 0.0547781 -0.386897 255 255 255 255 
-0.814832 -0.983703 0.877893 0.127453 -0.991292 -0.033105 255 255 255 255 
-0.661786 -0.166627 0.348016 -0.595703 0.31966 -0.736855 255 255 255 255 
0.0392064 0.00980163 -0.931979 0.153785 -0.603856 -0.782117 255 255 255 255 
-0.416155 -0.710912 -0.0213746 -0.146204 -0.823066 -0.548805 255 255 255 255 
-0.459022 -0.919107 0.858054 0.234377 -0.877672 -0.418042 255 255 255 255 
-0.473666 -0.846127 0.201819 0.0139733 -0.913188 -0.407298 255 255 255 255 
-0.741025 -0.844119 0.388876 -0.657749 -0.387251 -0.646067 255 255 255 255 
0.334199 0.634743 -0.981105 0.367441 0.228611 -0.901512 255 255 255 255 
-0.466344 -0.538262 -0.145843 -0.833527 -0.222026 -0.505902 255 255 255 255 
-0.934341 -0.993269 0.830302 -0.0336117 -0.992325 -0.118998 255 255 255 255 
-0.769485 -0.82794 0.40966 -0.706091 -0.131345 -0.695833 255 255 255 255 
-0.6423 -0.402692 0.298536 -0.922781 -0.124836 -0.364543 255 255 255 255 
-0.439773 -0.268068 0.349906 0.824281 0.518223 -0.228046 255 255 255 255 
-0.705716 -0.829712 0.342466 -0.651152 -0.433116 -0.623227 255 255 255 255 
-0.481223 -0.762045 0.0777043 -0.350442 -0.72566 -0.592121 255 255 255 255 
-0.00791216 0.3688 -0.614903 0.477302 0.847916 0.230698 255 255 255 255 
-0.0127539 -0.442962 -0.34282 1 0 0 255 255 255 255 
0.0862069 0.0330657 -0.909188 0.601429 -0.505148 -0.618958 255 255 255 255 
-0.581956 -0.171705 0.315541 0.116591 0.63007 -0.767736 255 255 255 255 
0.258621 -0.730279 0.933987 0.763374 -0.625573 -0.160992 255 255 255 255 
-0.435758 -0.836089 0.18505 0.120788 -0.916488 -0.381392 255 255 255 255 
-0.367619 -0.224374 -0.529995 -0.479925 0.255721 -0.839213 255 255 255 255 
-0.762754 -0.804204 0.395843 -0.822399 -0.210644 -0.528478 255 255 255 255 
-0.176901 0.387104 -0.522674 -0.820467 0.200324 -0.535448 255 255 255 255 
-0.779287 0.81188 0.95855 0.945155 0.301017 -0.126767 255 255 255 255 
-0.460439 -0.340576 -0.439419 -0.728657 -0.555892 -0.400053 255 255 255 255 
-0.681271 0.0779405 0.485475 -0.435973 0.441625 -0.784152 255 255 255 255 
-0.439773 -0.805503 0.128247 -0.106207 -0.909354 -0.402239 255 255 255 255 
-0.684105 -0.0841993 0.401512 -0.559083 0.373775 -0.74008 255 255 255 255 
-0.434813 -0.805975 0.129192 0.21418 -0.310921 -0.925989 255 255 255 255 
-0.71847 -0.931034 0.50059 -0.0309292 -0.965567 -0.258309 255 255 255 255 
-0.160014 -0.467997 -0.621398 -0.152616 -0.338031 -0.928678 255 255 255 255 
-0.968115 -0.979334 0.807511 -0.576408 -0.769256 -0.275678 255 255 255 255 
0.133325 0.809754 -0.708077 -0.201356 0.957844 0.204915 255 255 255 255 
-0.0692017 0.37624 -0.605456 0.44458 0.720765 -0.531834 255 255 255 255 
0.382735 0.552669 -0.963982 0.738195 0.0236242 -0.674174 255 255 255 255 
-0.863486 0.947922 0.938002 0.348785 0.478898 -0.805609 255 255 255 255 
-0.405409 -0.393954 -0.449103 -0.7087 -0.525695 -0.47052 255 255 255 255 
-0.26051 -0.642773 0.168871 0.986217 -0.0983403 0.133063 255 255 255 255 
0.0367265 0.356401 -0.690364 0.187591 0.86666 0.462287 255 255 255 255 
-0.256259 -0.234412 -0.606046 -0.554093 0.0780774 -0.828785 255 255 255 255 
-0.406826 -0.387577 -0.455243 -0.69176 -0.575506 -0.436189 255 255 255 255 
-0.577941 0.0598725 0.521965 0.650959 0.577042 -0.493229 255 255 255 255 
-0.433869 -0.619863 -0.130255 -0.58286 -0.615916 -0.53002 255 255 255 255 
-0.227799 -0.253779 -0.624351 -0.534529 0.0125912 -0.845057 255 255 255 255 
-0.247284 -0.605574 -0.331365 0.38419 0.181818 -0.905174 255 255 255 255 
-0.70914 -0.155645 0.43316 -0.968731 -0.0597375 -0.240815 255 255 255 255 
-0.103921 0.56436 -0.562234 -0.868709 0.403633 -0.287098 255 255 255 255 
-0.619273 0.129428 0.549008 0.45962 0.661331 -0.592782 255 255 255 255 
-0.424539 -0.226854 -0.489136 -0.618899 0.352028 -0.702168 255 255 255 255 
-0.112187 -0.581129 -0.47154 0.206914 -0.962613 -0.17482 255 255 255 255 
0.0987246 0.323689 -0.922296 0.602175 0.598164 -0.528758 255 255 255 255 
-0.733113 -0.928318 0.477917 -0.142306 -0.932164 -0.332897 255 255 255 255 
0.350024 0.506259 -0.991734 0.320316 -0.224595 -0.920301 255 255 255 255 
-0.359117 -0.468115 -0.547355 -0.789819 0.13383 -0.598561 255 255 255 255 
0.0407416 0.0157062 -0.929972 0.247744 -0.570832 -0.782799 255 255 255 255 
-0.205243 -0.0932924 -0.56129 -0.164194 0.735172 -0.657695 255 255 255 255 
0.35085 0.517714 -0.992678 0.382868 -0.0602579 -0.921836 255 255 255 255 
-0.363722 -0.720359 0.0050779 0.22477 -0.867286 -0.444178 255 255 255 255 
-0.150331 0.104157 -0.381082 0.995819 -0.0908327 0.00967786 255 255 255 255 
-0.861242 0.908007 0.923477 0.270363 0.309142 -0.911776 255 255 255 255 
-0.408951 -0.324162 -0.498583 -0.586253 -0.348746 -0.731221 255 255 255 255 
-0.448512 -0.523028 -0.187648 -0.824684 -0.564573 -0.0339735 255 255 255 255 
-0.273855 -0.0847898 -0.533066 -0.417311 0.526802 -0.740494 255 255 255 255 
-0.276571 -0.602031 -0.336207 -0.142414 -0.981546 -0.127615 255 255 255 255 
0.387222 0.460912 -0.954535 0.875509 -0.0978462 -0.473191 255 255 255 255 
-0.732286 -0.913557 0.456542 -0.303584 -0.846698 -0.436966 255 255 255 255 
-0.674303 0.0595182 0.472485 -0.228309 0.542478 -0.808451 255 255 255 255 
-0.467643 -0.493387 -0.15777 -0.922964 -0.34637 -0.167827 255 255 255 255 
-0.176901 -0.481341 -0.615021 -0.103417 -0.352494 -0.930082 255 255 255 255 
-0.700402 0.539443 0.846009 0.876134 0.423861 -0.22963 255 255 255 255 
-0.682924 -0.935994 0.500709 0.0962555 -0.982543 -0.159198 255 255 255 255 
-0.136278 0.489608 -0.547119 -0.815242 0.204675 -0.541746 255 255 255 255 
-0.315541 -0.499528 -0.590694 -0.404664 -0.173751 -0.897807 255 255 255 255 
-0.039915 0.366438 -0.731342 -0.275523 0.948206 0.158091 255 255 255 255 
-0.353212 -0.546764 -0.496575 -0.831381 -0.555508 -0.014691 255 255 255 255 
-0.378248 -0.317312 0.245749 0.432838 0.901461 0.00438421 255 255 255 255 
-0.88675 0.950756 0.933869 0.105713 0.470301 -0.876152 255 255 255 255 
-0.365612 -0.715163 -0.00602265 0.209947 -0.833511 -0.51106 255 255 255 255 
-0.0825461 -0.574398 -0.37683 0.413765 -0.90757 0.0715178 255 255 255 255 
-0.0114549 0.369863 -0.663557 0.396908 0.893307 -0.210871 255 255 255 255 
-0.725555 0.0995513 0.536608 -0.664373 0.361993 -0.653887 255 255 255 255 
-0.836443 -0.977917 0.730751 0.171786 -0.983859 -0.0501066 255 255 255 255 
-0.0477091 0.312943 -0.938474 -0.542716 0.518461 -0.660801 255 255 255 255 
-0.497638 -0.830775 0.177846 -0.207003 -0.796868 -0.567584 255 255 255 255 
0.0170052 0.381318 -0.749055 0.0231195 0.988405 0.150067 255 255 255 255 
-0.744332 0.442253 0.712211 0.0519895 0.56681 -0.822207 255 255 255 255 
-0.43564 -0.388994 -0.344119 -0.822651 -0.56704 0.0413585 255 255 255 255 
-0.0616438 -0.545229 -0.533184 0.17029 -0.920737 -0.351063 255 255 255 255 
-0.275154 -0.677137 0.047709 0.852167 -0.502027 -0.147582 255 255 255 255 
-0.435758 -0.756141 0.0521965 -0.0867052 -0.831542 -0.548652 255 255 255 255 
-0.435758 -0.374823 -0.171587 -0.841269 0.494836 -0.217723 255 255 255 255 
0.311762 0.330657 -0.986183 0.0916059 -0.181032 -0.979202 255 255 255 255 
-0.339277 -0.231105 -0.550779 -0.531473 0.11933 -0.838628 255 255 255 255 
-0.431389 -0.342584 -0.464691 -0.633129 -0.449032 -0.63049 255 255 255 255 
-0.282003 -0.536254 -0.583018 -0.0915158 -0.537383 -0.838358 255 255 255 255 
-0.298181 -0.775862 0.224256 0.823787 -0.563797 -0.059234 255 255 255 255 
-0.289915 -0.174776 -0.565659 -0.536011 0.328851 -0.777528 255 255 255 255 
-0.437884 -0.459258 -0.223666 -0.937098 0.0677979 -0.342418 255 255 255 255 
-0.27291 -0.715517 0.227444 0.976955 -0.21155 0.0283813 255 255 255 255 
-0.267832 -0.524445 0.216816 0.994174 0.0608217 0.088983 255 255 255 255 
-0.668989 -0.0276334 0.421941 -0.318593 0.458994 -0.829351 255 255 255 255 
-0.858762 -0.981696 0.962565 1 0 0 255 255 255 255 
-0.213392 -0.601441 -0.311998 1 0 0 255 255 255 255 
0.0164147 0.230751 -0.985357 -0.0983379 0.0949741 -0.990611 255 255 255 255 
-0.585971 0.134506 0.600142 0.797591 0.490765 -0.350713 255 255 255 255 
0.205125 -0.305149 -0.700874 0.89343 -0.425957 0.142633 255 255 255 255 
-0.0133444 0.369509 -0.893127 -0.188346 0.920857 -0.341391 255 255 255 255 
0.208077 -0.753543 0.906353 0.338711 -0.40289 -0.850267 255 255 255 255 
-0.406353 -0.583727 -0.199575 -0.669724 -0.50857 -0.541134 255 255 255 255 
-0.420052 -0.31188 -0.49693 -0.5637 -0.285276 -0.775151 255 255 255 255 
0.225083 -0.211266 -0.808692 0.573087 -0.506292 -0.644391 255 255 255 255 
-0.784128 0.291804 0.681389 -0.963016 -0.0627064 -0.262048 255 255 255 255 
-0.0640057 -0.510038 -0.603566 0.0327131 -0.792218 -0.609361 255 255 255 255 
0.0667217 0.00283422 -0.913911 0.46883 -0.622131 -0.627018 255 255 255 255 
0.0474728 -0.0199575 -0.882853 0.364482 -0.779731 -0.50909 255 255 255 255 
-0.0185404 0.372343 -0.667454 0.366515 0.897426 -0.245549 255 255 255 255 
0.0213746 -0.532593 -0.492442 0.344412 -0.93797 -0.0399035 255 255 255 255 
0.374469 0.54393 -0.969887 0.664337 0.0914231 -0.74182 255 255 255 255 
-0.461266 -0.348488 -0.380137 -0.850113 -0.522871 -0.0625636 255 255 255 255 
-0.0431035 0.0142891 -0.907889 -0.485421 -0.56578 -0.666528 255 255 255 255 
0.38368 0.416509 -0.949221 0.821941 -0.101554 -0.560447 255 255 255 255 
-0.489372 -0.316604 0.127775 -0.164827 0.944398 -0.284509 255 255 255 255 
-0.597544 -0.908125 0.42206 0.132473 -0.986028 -0.100992 255 255 255 255 
-0.778578 0.490789 0.746221 -0.302135 0.505166 -0.808407 255 255 255 255 
0.361597 0.524917 -0.980751 0.540356 -0.0231052 -0.841119 255 255 255 255 
-0.729452 -0.969178 0.914265 0.272429 -0.962002 0.018285 255 255 255 255 
-0.496221 -0.794166 0.130373 -0.259748 -0.819287 -0.511175 255 255 255 255 
0.133916 -0.349315 -0.745631 0.261087 -0.603086 -0.753738 255 255 255 255 
-0.453236 -0.516533 -0.180444 -0.881807 -0.424301 -0.205876 255 255 255 255 
-0.429027 -0.870217 0.310463 0.317507 -0.94766 -0.0336002 255 255 255 255 
-0.551016 -0.180208 0.319556 0.339205 0.590337 -0.732422 255 255 255 255 
0.0224374 0.357227 -0.922178 0.0751542 0.823109 -0.562889 255 255 255 255 
-0.0788852 0.358999 -0.762518 -0.473435 0.877097 0.0809932 255 255 255 255 
-0.274563 -0.593292 -0.403637 1 0 0 255 255 255 255 
-0.220241 -0.521847 -0.594946 0.0146471 -0.518902 -0.854708 255 255 255 255 
-0.0431035 0.370099 -0.704062 0.00507646 0.980442 -0.196742 255 255 255 255 
-0.418517 -0.409542 -0.314124 -0.913077 -0.394139 -0.104621 255 255 255 255 
-0.661077 -0.352031 0.339868 -0.961505 -0.171946 -0.214343 255 255 255 255 
-0.0173595 -0.0184223 -0.890411 -0.296521 -0.75608 -0.583454 255 255 255 255 
-0.612069 -0.476972 0.136632 -0.956341 0.175466 -0.233718 255 255 255 255 
-0.148677 0.133325 -0.406117 0.986067 -0.165865 0.0126721 255 255 255 255 
0.0460557 -0.448984 -0.677492 0.00452838 -0.719682 -0.69429 255 255 255 255 
-0.0903401 -0.568493 -0.482286 0.242928 -0.953053 -0.180766 255 255 255 255 
-0.926311 -0.941308 0.692253 -0.651761 -0.542594 -0.529905 255 255 255 255 
-0.568729 -0.503543 0.0132263 -0.865447 0.209563 -0.455065 255 255 255 255 
0.0999055 0.363958 -0.762754 0.52229 0.836755 0.164483 255 255 255 255 
-0.45607 -0.287317 0.256377 0.295946 0.919739 -0.257868 255 255 255 255 
-0.506495 -0.202409 0.330657 0.561506 0.629552 -0.537006 255 255 255 255 
-0.854511 0.856401 0.906944 0.107352 0.38793 -0.915416 255 255 255 255 
-0.869273 0.861715 0.908597 -0.000607731 0.25384 -0.967246 255 255 255 255 
-0.556802 -0.89915 0.44863 0.286983 -0.951961 0.10682 255 255 255 255 
-0.177019 -0.595536 -0.325697 0.170303 -0.981593 0.0864372 255 255 255 255 
-0.292277 -0.88427 0.947685 0.526101 -0.848638 0.0550499 255 255 255 255 
-0.703236 0.0255078 0.473429 -0.596429 0.4549 -0.661316 255 255 255 255 
-0.62565 -0.888403 0.332546 -0.224664 -0.869613 -0.439659 255 255 255 255 
-0.550779 -0.158361 0.339868 0.342837 0.646911 -0.681152 255 255 255 255 
-0.858881 0.94119 0.937057 0.380978 0.389285 -0.838638 255 255 255 255 
0.196623 -0.169343 -0.845536 0.263983 -0.426855 -0.864932 255 255 255 255 
-0.651394 -0.913085 0.409188 -0.0234461 -0.966888 -0.254121 255 255 255 255 
-0.116202 -0.426783 -0.645607 -0.214084 -0.347093 -0.913069 255 255 255 255 
-0.659069 -0.931271 0.487955 0.145706 -0.98128 -0.125932 255 255 255 255 
0.0249173 0.0060227 -0.930326 -0.0119646 -0.605536 -0.795728 255 255 255 255 
-0.76606 0.765824 0.961974 0.967157 0.231875 -0.104122 255 255 255 255 
-0.5718 -0.0588096 0.416745 0.447895 0.558019 -0.698574 255 255 255 255 
-0.620926 0.00472368 0.444733 0.234988 0.617361 -0.750764 255 255 255 255 
-0.283656 -0.687766 0.0416864 0.795045 -0.577209 -0.186368 255 255 255 255 
-0.112659 0.367737 -0.641592 -0.583618 0.809508 -0.0639294 255 255 255 255 
-0.274917 0.034837 -0.480987 -0.547364 0.290458 -0.784873 255 255 255 255 
0.236656 -0.748347 0.931389 0.548402 -0.831785 -0.0859605 255 255 255 255 
0.0435758 -0.500945 -0.598843 0.223128 -0.86711 -0.445347 255 255 255 255 
-0.837388 0.86632 0.907416 0.199901 0.273547 -0.940857 255 255 255 255 
-0.19367 -0.579239 -0.15222 0.723421 -0.647282 0.240183 255 255 255 255 
-0.0342466 -0.347544 -0.307156 1 0 0 255 255 255 255 
-0.551488 -0.212565 0.292513 0.273253 0.541446 -0.795091 255 255 255 255 
-0.130491 -0.835616 0.894544 0.248748 -0.83106 -0.497457 255 255 255 255 
-0.179499 -0.518304 -0.594828 0.0544803 -0.556089 -0.829335 255 255 255 255 
-0.612423 -0.67076 0.175838 -0.925129 -0.266654 -0.270243 255 255 255 255 
0.389348 0.471186 -0.952291 0.918115 -0.0554939 -0.39241 255 255 255 255 
0.107581 0.299244 -0.932806 0.670506 0.409336 -0.618762 255 255 255 255 
0.17761 -0.374941 -0.659778 0.885926 -0.460849 -0.0524794 255 255 255 255 
0.389702 0.570383 -0.926901 0.979843 0.0442889 0.194799 255 255 255 255 
-0.434695 -0.63179 -0.116793 -0.545993 -0.622451 -0.560755 255 255 255 255 
-0.00755789 0.376358 -0.748701 -0.100454 0.980502 0.16889 255 255 255 255 
-0.592702 -0.334436 0.22154 -0.734559 0.239874 -0.634731 255 255 255 255 
-0.063061 0.364785 -0.813179 -0.448896 0.892763 -0.0382995 255 255 255 255 
-0.38864 -0.860652 0.836325 0.214876 -0.192617 -0.957459 255 255 255 255 
-0.583255 -0.897496 0.367383 0.0616079 -0.968152 -0.242663 255 255 255 255 
-0.39915 -0.229216 -0.511809 -0.576294 0.272044 -0.770635 255 255 255 255 
-0.638876 -0.114077 0.349669 -0.260143 0.503319 -0.824012 255 255 255 255 
-0.272319 0.0823099 -0.472012 -0.609806 0.163577 -0.775486 255 255 255 255 
-0.713982 -0.158951 0.496457 1 0 0 255 255 255 255 
-0.597898 -0.90718 0.409069 0.0593101 -0.996732 -0.0548423 255 255 255 255 
-0.797591 0.329476 0.738545 1 0 0 255 255 255 255 
-0.433751 -0.382853 -0.372343 -0.780733 -0.624249 -0.0277514 255 255 255 255 
-0.824398 0.852031 0.914974 0.455655 0.292776 -0.840631 255 255 255 255 
-0.416273 -0.897733 0.847189 0.259592 -0.670364 -0.695144 255 255 255 255 
-0.664856 0.0414502 0.45666 -0.370341 0.466925 -0.803012 255 255 255 255 
-0.247638 -0.397969 -0.613722 -0.388202 -0.0056433 -0.921557 255 255 255 255 
-0.241616 -0.488781 -0.604629 -0.0968238 -0.325848 -0.940451 255 255 255 255 
-0.50992 -0.326996 0.112069 -0.35634 0.871558 -0.336762 255 255 255 255 
0.00637693 -0.201346 -0.691545 -0.367848 -0.269331 -0.890027 255 255 255 255 
-0.291923 -0.727917 0.111478 0.820367 -0.520526 -0.236748 255 255 255 255 
-0.198276 -0.586207 -0.155409 0.669803 -0.729275 0.139722 255 255 255 255 
-0.300779 -0.594001 -0.331011 -0.394551 -0.893429 -0.214744 255 255 255 255 
-0.54086 -0.811408 0.176901 -0.435641 -0.641663 -0.631257 255 255 255 255 
-0.719178 -0.12931 0.489136 1 0 0 255 255 255 255 
-0.380964 -0.389466 -0.487364 -0.775097 -0.443318 -0.450214 255 255 255 255 
-0.386986 -0.67761 -0.0768777 -0.0748282 -0.868907 -0.489287 255 255 255 255 
0.241025 0.192962 -0.93812 -0.692282 0.0294373 -0.721026 255 255 255 255 
-0.693906 -0.968588 0.896316 0.16378 -0.98035 -0.109953 255 255 255 255 
-0.421469 -0.86632 0.344591 0.407474 -0.913208 -0.0039751 255 255 255 255 
-0.402929 -0.35085 0.0588096 0.264102 0.895713 -0.357697 255 255 255 255 
0.384388 0.435758 -0.952173 0.852069 -0.142361 -0.503699 255 255 255 255 
-0.326169 -0.655645 -0.11325 0.215663 -0.901286 -0.37573 255 255 255 255 
-0.256849 0.128366 -0.473902 -0.658419 0.263504 -0.705018 255 255 255 255 
0.00460554 0.379665 -0.772201 -0.0481561 0.995149 0.085789 255 255 255 255 
0.0533774 0.348134 -0.685286 0.300447 0.78279 0.544951 255 255 255 255 
0.233703 -0.657062 0.941781 0.241648 0.650191 -0.720318 255 255 255 255 
-0.879547 0.99256 0.960439 0.2401 0.723962 -0.646708 255 255 255 255 
-0.582192 -0.722367 0.149386 -0.561013 0.0630871 -0.8254 255 255 255 255 
-0.350496 -0.791214 0.13368 0.392957 -0.828584 -0.39879 255 255 255 255 
-0.445796 -0.283302 0.285191 0.488775 0.838593 -0.240544 255 255 255 255 
-0.331956 -0.802433 0.189773 0.577654 -0.781746 -0.234923 255 255 255 255 
0.376594 0.619154 -0.94615 0.82531 0.270484 -0.495683 255 255 255 255 
-0.346245 -0.582192 -0.297591 -0.623399 -0.692919 -0.362266 255 255 255 255 
-0.524563 -0.561762 -0.0494804 -0.809333 -0.0969265 -0.579297 255 255 255 255 
-0.632381 -0.431625 0.281649 -0.944232 -0.113837 -0.308978 255 255 255 255 
0.338687 0.611124 -0.986419 0.336735 0.141342 -0.930931 255 255 255 255 
-0.337506 -0.163439 -0.529169 -0.570325 0.34081 -0.74738 255 255 255 255 
-0.491852 -0.853921 0.822154 0.161041 0.145869 -0.976109 255 255 255 255 
-0.489962 -0.570501 -0.0987246 -0.793471 -0.282952 -0.538834 255 255 255 255 
-0.147142 -0.59034 -0.393245 0.204108 -0.977869 -0.0459611 255 255 255 255 
0.361951 0.599079 -0.974138 0.604193 0.0882222 -0.791939 255 255 255 255 
0.349669 0.339041 -0.963155 0.584564 -0.190479 -0.788672 255 255 255 255 
-0.125531 -0.582428 -0.426901 0.250255 -0.965789 -0.0680037 255 255 255 255 
-0.709258 0.496457 0.7735 0.66 0.568878 -0.490691 255 255 255 255 
0.320855 0.184932 -0.93505 0.490289 -0.26812 -0.829294 255 255 255 255 
-0.364549 -0.798418 0.135687 0.315534 -0.84229 -0.437018 255 255 255 255 
-0.255432 -0.576169 0.114667 0.9945 0.00475997 0.104628 255 255 255 255 
-0.739844 0.201346 0.585026 -0.829189 0.0496863 -0.556755 255 255 255 255 
-0.560227 -0.881436 0.29145 -0.0961047 -0.921829 -0.375494 255 255 255 255 
-0.0436939 -0.147969 -0.723193 0.276793 -0.527866 -0.802959 255 255 255 255 
0.28838 0.177374 -0.959022 -0.0875107 -0.188665 -0.978135 255 255 255 255 
0.107227 0.0680208 -0.910605 0.665783 -0.386082 -0.638493 255 255 255 255 
-0.444025 -0.344237 -0.457251 -0.654646 -0.448864 -0.608244 255 255 255 255 
0.0749882 -0.806448 0.916037 0.223486 -0.974458 -0.022027 255 255 255 255 
-0.0740435 0.381908 -0.643481 -0.170352 0.985353 0.00774354 255 255 255 255 
0.360298 0.316368 -0.948394 0.721404 -0.237763 -0.650419 255 255 255 255 
-0.599433 0.129665 0.571564 0.651795 0.566368 -0.504371 255 255 255 255 
-0.268895 -0.606519 0.183042 0.988663 -0.0164608 0.149245 255 255 255 255 
-0.815069 0.876476 0.936231 0.688621 0.374994 -0.620629 255 255 255 255 
-0.256377 -0.559046 0.118564 0.994889 0.0376747 0.0936865 255 255 255 255 
-0.444497 -0.26488 0.344237 0.74815 0.589223 -0.305102 255 255 255 255 
-0.420879 -0.303614 0.22461 0.255137 0.956926 -0.138556 255 255 255 255 
0.192962 -0.121871 -0.860888 0.645112 -0.711448 -0.278698 255 255 255 255 
-0.0160605 0.37624 -0.642655 0.358244 0.932113 -0.0531594 255 255 255 255 
-0.45359 -0.346717 -0.430562 -0.724087 -0.606872 -0.327727 255 255 255 255 
-0.378248 -0.87435 0.843411 0.232197 -0.415179 -0.879608 255 255 255 255 
-0.254369 -0.529877 -0.587742 -0.0417379 -0.501176 -0.864338 255 255 255 255 
-0.729806 -0.921233 0.459376 -0.206182 -0.899674 -0.384806 255 255 255 255 
-0.606283 0.113958 0.545938 0.602966 0.532737 -0.593821 255 255 255 255 
-0.228389 0.1547 -0.486183 -0.116286 0.018854 -0.993037 255 255 255 255 
-0.735593 0.606283 0.844591 0.755645 0.480725 -0.444864 255 255 255 255 
-0.331011 -0.863014 0.85026 0.21412 -0.367937 -0.904862 255 255 255 255 
0.156589 0.314124 -0.798418 0.861342 0.505183 -0.0536643 255 255 255 255 
-0.394662 -0.134624 -0.420524 -0.767376 0.627928 -0.129768 255 255 255 255 
-0.818729 -0.947685 0.588687 -0.274333 -0.871059 -0.407429 255 255 255 255 
-0.528696 -0.869391 0.494922 1 0 0 255 255 255 255 
-0.380137 -0.470477 -0.460557 -0.981552 -0.0841874 -0.171665 255 255 255 255 
-0.232522 -0.599787 -0.408007 0.0334646 -0.998452 -0.0444359 255 255 255 255 
-0.312707 -0.530822 -0.585498 -0.26494 -0.354235 -0.896841 255 255 255 255 
-0.52598 -0.109471 0.410132 0.65912 0.526907 -0.536591 255 255 255 255 
0.298299 0.413793 -0.986065 -0.369626 -0.0218117 -0.928925 255 255 255 255 
-0.638049 -0.0557392 0.397969 -0.0578342 0.562647 -0.824672 255 255 255 255 
-0.555031 -0.939419 0.867029 0.15971 -0.968748 -0.18979 255 255 255 255 
-0.478862 -0.251889 0.302905 0.495847 0.800622 -0.336363 255 255 255 255 
-0.657062 0.0875059 0.501181 0.0936226 0.54287 -0.834582 255 255 255 255 
-0.350968 -0.597307 -0.26488 -0.571439 -0.699702 -0.428805 255 255 255 255 
-0.729688 -0.0453472 0.507912 -0.970147 0.0242852 -0.241298 255 255 255 255 
-0.655172 -0.891592 0.363958 -0.260392 -0.861654 -0.435602 255 255 255 255 
-0.432215 -0.364667 -0.448276 -0.630621 -0.644675 -0.432101 255 255 255 255 
-0.356282 -0.607345 -0.241143 0.110939 0.393709 -0.912516 255 255 255 255 
-0.88675 0.795229 0.916155 -0.741789 -0.154484 -0.652598 255 255 255 255 
-0.510274 -0.282829 0.236774 0.0890145 0.846412 -0.525037 255 255 255 255 
-0.791332 0.330893 0.716226 -0.962987 -0.0183229 -0.268925 255 255 255 255 
-0.73394 -0.941545 0.539088 0.0220615 -0.974415 -0.223673 255 255 255 255 
-0.109353 0.0641238 -0.869981 -0.825503 -0.337893 -0.452077 255 255 255 255 
-0.645253 0.165446 0.564832 0.340782 0.5929 -0.729614 255 255 255 255 
-0.799126 0.346363 0.732995 -0.958182 0.0473441 -0.282215 255 255 255 255 
-0.338214 -0.789206 0.347662 1 0 0 255 255 255 255 
-0.732877 0.628956 0.877893 0.834623 0.394664 -0.384245 255 255 255 255 
-0.659069 0.375177 0.720831 0.790824 0.400286 -0.463 255 255 255 255 
0.190364 -0.31188 -0.666863 0.93953 -0.277522 0.200663 255 255 255 255 
-0.130255 -0.585026 -0.362896 0.289253 -0.951405 0.105646 255 255 255 255 
-0.455598 -0.346481 -0.438002 -0.724214 -0.57934 -0.374004 255 255 255 255 
-0.124941 -0.0714454 -0.366911 0.872582 0.422137 0.245764 255 255 255 255 
-0.807038 0.684813 0.85829 -0.106216 0.404619 -0.908296 255 255 255 255 
-0.663675 0.0350732 0.451346 -0.606358 0.267089 -0.748995 255 255 255 255 
0.107936 -0.383916 -0.714691 0.174081 -0.615999 -0.768272 255 255 255 255 
-0.595772 -0.00980158 0.444143 0.350483 0.587095 -0.729713 255 255 255 255 
-0.0155881 -0.034837 -0.867383 -0.273594 -0.84819 -0.453564 255 255 255 255 
-0.361715 -0.601913 -0.241497 -0.543875 -0.66525 -0.511509 255 255 255 255 
-0.391238 -0.461148 -0.378248 -0.92763 -0.34096 -0.152474 255 255 255 255 
-0.34837 -0.821564 0.232641 0.514915 -0.847848 -0.126554 255 255 255 255 
0.0429853 0.369036 -0.723193 0.189589 0.956227 0.222904 255 255 255 255 
-0.904346 -0.987718 0.795701 0.0724071 -0.99348 -0.0880601 255 255 255 255 
-0.430798 -0.352858 -0.465517 -0.592471 -0.632877 -0.498443 255 255 255 255 
-0.729098 0.437175 0.698276 -0.00160849 0.512751 -0.858536 255 255 255 255 
-0.0733349 -0.55633 -0.517714 0.199865 -0.92749 -0.315938 255 255 255 255 
0.0226736 0.0172414 -0.934223 0.0354597 -0.572759 -0.818957 255 255 255 255 
-0.582546 -0.161431 0.325224 0.128842 0.668166 -0.732771 255 255 255 255 
-0.345654 -0.565305 -0.321445 -0.625777 -0.743305 -0.236433 255 255 255 255 
-0.197331 -0.593292 -0.485239 0.108286 -0.972128 -0.207944 255 255 255 255 
-0.353803 -0.0669579 -0.424658 1 0 0 255 255 255 255 
-0.212093 -0.579948 -0.537435 0.148547 -0.861094 -0.486262 255 255 255 255 
-0.496457 -0.846127 0.81743 0.158847 0.175771 -0.971531 255 255 255 255 
-0.271138 -0.538852 0.23701 0.989314 0.00192011 0.145787 255 255 255 255 
-0.341049 -0.615376 -0.241379 -0.285966 -0.6076 -0.740976 255 255 255 255 
-0.619154 -0.916509 0.532239 0.313387 -0.947092 0.0693242 255 255 255 255 
-0.331365 -0.612541 -0.257676 -0.343277 -0.8781 -0.333319 255 255 255 255 
-0.412258 -0.547945 -0.220005 -0.788101 -0.410588 -0.458601 255 255 255 255 
-0.455598 -0.80137 0.122815 0.101633 -0.420143 -0.901749 255 255 255 255 
-0.820737 0.492796 0.814006 1 0 0 255 255 255 255 
-0.215753 -0.561171 -0.55692 0.118369 -0.784169 -0.609153 255 255 255 255 
0.0610534 -0.438002 -0.683514 0.0489284 -0.697412 -0.714998 255 255 255 255 
-0.45666 -0.207487 -0.386396 -0.671711 0.300554 -0.677105 255 255 255 255 
0.140057 0.284837 -0.896552 0.8257 0.290078 -0.483813 255 255 255 255 
-0.26051 -0.660605 0.148087 0.98839 -0.151905 -0.00303595 255 255 255 255 
-0.295111 -0.522792 -0.586443 -0.211885 -0.373294 -0.903192 255 255 255 255 
-0.330539 -0.32487 -0.55196 -0.593315 -0.11862 -0.796183 255 255 255 255 
-0.455479 -0.864903 0.823335 0.210326 -0.0918939 -0.973303 255 255 255 255 
-0.694969 0.103212 0.508503 -0.149114 0.618005 -0.771904 255 255 255 255 
-0.140647 0.326878 -0.511809 0.209412 -0.300603 -0.930475 255 255 255 255 
0.052905 -0.514525 -0.540505 0.357101 -0.918812 -0.168118 255 255 255 255 
-0.183751 -0.596363 -0.3218 0.234343 -0.972139 -0.00538143 255 255 255 255 
-0.460085 -0.505786 -0.172886 -0.888822 -0.168248 -0.42625 255 255 255 255 
-0.621398 -0.663203 0.204062 -0.808155 0.188083 -0.55813 255 255 255 255 
-0.26488 -0.525744 -0.595182 -0.103073 -0.485898 -0.867916 255 255 255 255 
-0.372225 -0.282357 -0.530586 -0.522995 -0.0784528 -0.848717 255 255 255 255 
0.0811289 -0.441545 -0.677137 0.151705 -0.743668 -0.651109 255 255 255 255 
-0.309636 0.0381436 -0.434341 1 0 0 255 255 255 255 
-0.397733 -0.699102 -0.0371988 -0.0211665 -0.865394 -0.500645 255 255 255 255 
-0.743269 -0.959022 0.825461 0.27685 -0.806181 -0.522901 255 255 255 255 
-0.087624 -0.504015 -0.610061 -0.0513049 -0.720225 -0.691841 255 255 255 255 
-0.0383798 0.278106 -0.961856 -0.390267 0.248202 -0.886616 255 255 255 255 
0.280468 0.780822 -0.878366 0.340941 0.788402 -0.512037 255 255 255 255 
-0.729334 0.170761 0.573571 -0.438687 0.311213 -0.84303 255 255 255 255 
-0.0735711 0.33786 -0.889348 -0.650701 0.590302 -0.477632 255 255 255 255 
-0.423359 -0.446623 -0.257558 -0.963796 -0.105513 -0.244876 255 255 255 255 
-0.396316 -0.540742 -0.255668 -0.785784 -0.404855 -0.467585 255 255 255 255 
-0.565305 -0.594709 0.029641 -0.847133 -0.253223 -0.467165 255 255 255 255 
0.384388 0.362069 -0.933633 0.965763 -0.171638 -0.194531 255 255 255 255 
0.271375 -0.708668 0.940482 0.933509 -0.186018 -0.306525 255 255 255 255 
0.187529 -0.352149 -0.676783 0.89321 -0.444122 -0.0702215 255 255 255 255 
-0.626004 -0.282357 0.27291 -0.600823 0.19773 -0.774541 255 255 255 255 
0.156471 0.81436 -0.779405 -0.333109 0.93125 -0.147691 255 255 255 255 
-0.461856 -0.59778 -0.117974 -0.691429 -0.450398 -0.56486 255 255 255 255 
-0.346127 -0.204417 -0.538026 -0.557489 0.497534 -0.66458 255 255 255 255 
0.0312943 -0.519603 -0.547709 0.282273 -0.920022 -0.271813 255 255 255 255 
-0.712919 -0.912966 0.444025 -0.234464 -0.877114 -0.419163 255 255 255 255 
-0.362541 -0.681153 -0.0688474 0.107246 -0.871575 -0.478389 255 255 255 255 
-0.505432 -0.852504 0.218469 -0.0753772 -0.902871 -0.423251 255 255 255 255 
-0.434813 -0.806802 0.129546 0.0314695 -0.798577 -0.60107 255 255 255 255 
-0.712093 -0.853803 0.367029 -0.56175 -0.426348 -0.708988 255 255 255 255 
-0.276925 -0.705479 0.126712 0.906695 -0.396593 -0.143593 255 255 255 255 
-0.393836 -0.132735 -0.36573 1 0 0 255 255 255 255 
-0.596717 -0.243505 0.271375 -0.429114 0.651257 -0.62588 255 255 255 255 
-0.618564 0.251889 0.673949 0.849489 0.338128 -0.405016 255 255 255 255 
-0.325224 -0.796174 0.182688 0.607975 -0.756816 -0.239991 255 255 255 255 
0.212093 -0.140293 -0.855102 0.334664 -0.0626358 -0.940253 255 255 255 255 
0.274327 0.768422 -0.903283 0.260385 0.791402 -0.553066 255 255 255 255 
-0.243033 -0.838805 0.862305 0.191284 -0.401382 -0.895714 255 255 255 255 
-0.00271614 -0.538144 -0.482404 0.409048 -0.912444 0.0111749 255 255 255 255 
-0.0782948 0.377421 -0.618918 -0.237064 0.931119 0.27716 255 255 255 255 
-0.759211 0.255668 0.630373 -0.905352 -0.0279073 -0.423744 255 255 255 255 
0.10085 0.212565 -0.958786 0.593869 0.0431351 -0.803404 255 255 255 255 
0.209495 -0.25059 -0.773855 0.57788 -0.567112 -0.586889 255 255 255 255 
0.32428 0.303732 -0.968351 0.377125 -0.207042 -0.902724 255 255 255 255 
0.316958 0.191308 -0.939891 0.70048 -0.388132 -0.5989 255 255 255 255 
-0.395371 -0.811408 0.147378 0.143985 -0.230561 -0.962346 255 255 255 255 
-0.284719 -0.643718 -0.112069 0.336489 -0.92593 -0.171548 255 255 255 255 
0.108644 -0.450992 -0.651984 0.37037 -0.800802 -0.470683 255 255 255 255 
-0.799126 0.747638 0.887104 0.335027 0.433263 -0.836684 255 255 255 255 
-0.250709 -0.805739 0.856282 0.107068 0.0854524 -0.990573 255 255 255 255 
-0.35085 -0.0759329 -0.440009 -0.85021 0.46241 -0.251634 255 255 255 255 
0.262754 0.787435 -0.876476 0.180904 0.908994 -0.375505 255 255 255 255 
-0.275626 0.0878602 -0.46847 -0.60043 0.0884042 -0.794776 255 255 255 255 
-0.208196 -0.541804 -0.578767 0.0572702 -0.694363 -0.717343 255 255 255 255 
-0.738427 -0.840812 0.382853 -0.693129 -0.439346 -0.571443 255 255 255 255 
0.00507791 -0.781649 0.839631 -0.0117042 -0.205625 -0.978561 255 255 255 255 
-0.791214 -0.942607 0.542513 -0.20492 -0.903539 -0.376332 255 255 255 255 
-0.339986 -0.761337 0.0888049 0.401869 -0.793925 -0.456273 255 255 255 255 
-0.476382 -0.883325 0.341521 0.253663 -0.967284 -0.00415075 255 255 255 255 
-0.576641 -0.540505 0.0333018 -0.855511 0.0493683 -0.515426 255 255 255 255 
-0.0825461 0.300425 -0.917218 -0.71637 0.373416 -0.589384 255 255 255 255 
0.168753 -0.119863 -0.863132 -0.455844 -0.181351 -0.871389 255 255 255 255 
-0.281531 -0.526216 -0.591875 -0.16553 -0.434779 -0.885193 255 255 255 255 
0.0940009 -0.266651 -0.779051 -0.60333 -0.105587 -0.790471 255 255 255 255 
-0.219532 -0.527161 -0.589395 0.0072529 -0.505955 -0.86253 255 255 255 255 
-0.657416 -0.955007 0.871752 0.169003 -0.976348 -0.134839 255 255 255 255 
-0.0660133 0.380019 -0.621398 -0.0957148 0.977434 0.18831 255 255 255 255 
-0.290387 -0.134979 -0.549717 -0.530235 0.400324 -0.74739 255 255 255 255 
-0.668044 0.0689655 0.475555 0.189555 0.659612 -0.727311 255 255 255 255 
-0.793103 0.344473 0.715045 -0.966666 -0.118467 -0.226986 255 255 255 255 
0.201582 -0.727799 0.904936 0.178716 0.138479 -0.974107 255 255 255 255 
0.112187 -0.398441 -0.710912 0.243495 -0.686514 -0.685134 255 255 255 255 
-0.429736 -0.437293 -0.249646 -0.978504 -0.166366 -0.121866 255 255 255 255 
-0.369391 -0.489372 -0.517478 1 0 0 255 255 255 255 
-0.642182 -0.315068 0.286727 -0.853101 0.044066 -0.519882 255 255 255 255 
-0.208314 -0.834317 0.868328 0.19666 -0.488882 -0.849894 255 255 255 255 
-0.78838 -0.970949 0.675484 1 0 0 255 255 255 255 
-0.668871 0.0403874 0.459022 -0.171849 0.563008 -0.808387 255 255 255 255 
-0.463982 -0.343765 0.0572745 -0.0378775 0.93368 -0.3561 255 255 255 255 
0.0355456 0.2983 -0.967879 0.0295938 0.492324 -0.869909 255 255 255 255 
0.0388521 -0.00897494 -0.916273 0.182367 -0.689891 -0.700566 255 255 255 255 
-0.74504 0.16521 0.586797 -0.925348 -0.085477 -0.369356 255 255 255 255 
-0.369863 -0.510274 -0.456778 -0.941602 -0.336728 0.000224797 255 255 255 255 
0.028342 0.340931 -0.645371 0.760184 0.628641 0.164106 255 255 255 255 
-0.283302 -0.625177 -0.200756 0.151752 -0.974615 -0.16461 255 255 255 255 
