ply
format ascii 1.0
comment VCGLIB generated
element vertex 837
property float x
property float y
property float z
property float nx
property float ny
property float nz
element face 0
property list uchar int vertex_indices
end_header
-0.317979 0.0993109 0.307953 0.297939 -0.937176 -0.181478 
-0.318368 0.0992463 0.307689 0.356302 -0.721002 -0.594311 
-0.322377 0.100118 0.303568 -0.934062 -0.227637 -0.275155 
-0.318624 0.103689 0.297574 0.106833 -0.921795 -0.372668 
-0.319598 0.100653 0.299528 0.184364 -0.911547 -0.36755 
-0.320679 0.101554 0.299233 -0.667594 0.149114 -0.72944 
-0.320581 0.102794 0.299276 -0.584481 0.125796 -0.801597 
-0.317876 0.105664 0.297477 0.848623 0.427103 -0.312125 
-0.319395 0.104763 0.297227 -0.794568 -0.178181 -0.580443 
-0.32065 0.0996535 0.302926 0.529791 -0.74802 -0.399734 
-0.323726 0.109544 0.308206 0.604349 0.529906 -0.594947 
-0.320168 0.098839 0.308173 0.587308 -0.80885 -0.028825 
-0.321039 0.102892 0.299655 -0.670765 0.480906 -0.564628 
-0.317485 0.103003 0.297683 0.369988 -0.465546 -0.803975 
-0.318446 0.104147 0.297104 0.276974 -0.512356 -0.812882 
-0.319494 0.100605 0.299616 0.18229 -0.941999 -0.281796 
-0.317628 0.103105 0.297524 0.112196 -0.465793 -0.877752 
-0.32111 0.101743 0.29978 -0.648057 -0.567918 -0.507436 
-0.317801 0.0996876 0.307875 0.163532 0.255942 -0.95276 
-0.320466 0.0988418 0.307703 0.28497 -0.685013 -0.670484 
-0.321046 0.102627 0.299532 -0.504002 0.211259 -0.837467 
-0.320867 0.100688 0.300714 -0.557039 -0.802704 0.213014 
-0.318169 0.102545 0.297935 -0.636626 -0.168455 -0.752549 
-0.317751 0.102974 0.29758 -0.0262792 -0.337212 -0.941062 
-0.322017 0.102186 0.303858 -0.325415 0.696833 -0.639162 
-0.320779 0.0997752 0.302584 0.310406 -0.821963 -0.477519 
-0.321635 0.0984866 0.307727 0.179765 -0.964246 -0.194717 
-0.319225 0.10606 0.298021 -0.528284 0.845909 0.0731743 
-0.323616 0.109017 0.30801 0.491554 0.540602 -0.682733 
-0.319309 0.103408 0.300076 1 0 0 
-0.322195 0.0988835 0.307312 0.176537 0.132729 -0.975304 
-0.322156 0.0996209 0.303482 -0.740913 -0.339068 -0.579725 
-0.320216 0.0990968 0.307625 0.129541 -0.109101 -0.985554 
-0.322229 0.102117 0.30396 -0.595641 0.379015 -0.708209 
-0.317096 0.1039 0.297444 0.506347 -0.334544 -0.794792 
-0.319468 0.106089 0.298795 -0.675229 0.721511 -0.153259 
-0.319157 0.104142 0.297275 -0.599538 -0.496032 -0.628098 
-0.319107 0.101229 0.298783 -0.222032 -0.458611 -0.860452 
-0.323157 0.104952 0.306076 -0.87707 0.0842341 -0.47292 
-0.316605 0.107288 0.296826 0.634228 0.0617233 -0.770678 
-0.319521 0.104691 0.297447 -0.860495 -0.188657 -0.473241 
-0.319951 0.0989648 0.307753 0.247615 -0.713702 -0.655222 
-0.31886 0.106162 0.298312 -0.16765 0.965141 0.200986 
-0.318141 0.104409 0.297195 0.708829 -0.332377 -0.622164 
-0.321208 0.102712 0.299708 -0.614193 0.372053 -0.695948 
-0.322374 0.0989349 0.304239 -0.423852 -0.701175 -0.573326 
-0.323842 0.109163 0.307933 0.0195175 0.215379 -0.976336 
-0.321742 0.10286 0.304649 0.609739 0.5635 -0.557392 
-0.316707 0.106223 0.296867 0.529784 -0.188461 -0.826929 
-0.321812 0.103411 0.30517 0.730654 0.535453 -0.423597 
-0.321127 0.101371 0.300294 -0.89345 -0.433192 -0.118704 
-0.322389 0.103782 0.305055 0.214686 0.597312 -0.772741 
-0.319806 0.100454 0.300516 0.200454 -0.978902 -0.0395994 
-0.318857 0.100911 0.299149 0.118022 -0.875537 -0.468514 
-0.322816 0.10392 0.305172 -0.54869 0.410172 -0.72849 
-0.320157 0.101413 0.298978 -0.279623 -0.0289063 -0.959675 
-0.322413 0.0986444 0.304819 -0.00515409 -0.921034 -0.389449 
-0.323247 0.106185 0.306581 -0.384827 0.451579 -0.804975 
-0.318772 0.106115 0.298925 0.527697 0.827682 0.19099 
-0.323075 0.105462 0.306175 -0.302863 0.415987 -0.857455 
-0.320783 0.100795 0.299272 -0.64113 -0.434383 -0.632664 
-0.322701 0.0984651 0.306114 0.332542 -0.940677 0.0673984 
-0.321322 0.101431 0.301319 -0.942709 0.100017 -0.318271 
-0.323601 0.108806 0.307928 0.386803 0.392174 -0.834615 
-0.32416 0.10886 0.308252 -0.895178 -0.140195 -0.423087 
-0.31932 0.100593 0.300343 0.414243 -0.905103 0.0958764 
-0.322178 0.104461 0.305798 0.683519 0.547972 -0.482212 
-0.322269 0.104778 0.306057 0.730418 0.525741 -0.435987 
-0.316832 0.107646 0.29678 0.245441 0.277531 -0.928836 
-0.321433 0.101863 0.300156 -0.743911 -0.639158 -0.195123 
-0.320273 0.100313 0.301278 0.225226 -0.963964 -0.141586 
-0.317229 0.10374 0.297439 0.398853 -0.327169 -0.856666 
-0.319882 0.101166 0.298963 -0.107749 -0.374456 -0.920963 
-0.320776 0.0996306 0.302851 0.361566 -0.795482 -0.48629 
-0.323693 0.108347 0.30777 -0.446221 0.0574977 -0.893074 
-0.319315 0.102568 0.298554 0.0298106 -0.380654 -0.924237 
-0.323261 0.0983406 0.306062 0.0507668 -0.96789 -0.246196 
-0.321452 0.0988084 0.304291 0.195878 -0.966516 -0.165769 
-0.321681 0.102177 0.303662 -0.119329 0.970578 -0.209141 
-0.318466 0.101316 0.298616 0.056411 -0.742711 -0.667232 
-0.323828 0.109687 0.308201 0.495222 0.490604 -0.716982 
-0.320681 0.0992504 0.303769 0.575788 -0.804734 -0.144469 
-0.321886 0.0990468 0.30375 -0.317661 -0.73988 -0.593017 
-0.317897 0.105816 0.297633 0.806496 0.508357 -0.30189 
-0.322425 0.101996 0.304084 -0.777964 0.123969 -0.615957 
-0.321305 0.10007 0.302096 -0.447492 -0.727876 -0.519564 
-0.322127 0.102639 0.304245 0.0831434 0.525363 -0.846806 
-0.317726 0.101791 0.29874 0.912843 -0.397264 0.0943314 
-0.318558 0.104684 0.296809 0.0752836 -0.273229 -0.958999 
-0.319753 0.102865 0.298698 -0.647045 0.0093986 -0.762394 
-0.322052 0.0986555 0.304942 0.191444 -0.975545 -0.10799 
-0.322566 0.102122 0.304325 -0.810117 0.0961158 -0.578336 
-0.321941 0.100961 0.3024 -0.865261 -0.0398088 -0.499738 
-0.322329 0.104544 0.305718 0.505545 0.61342 -0.606745 
-0.323831 0.108567 0.307843 -0.165458 0.131979 -0.977346 
-0.320866 0.10102 0.299316 -0.828742 0.0198208 -0.55928 
-0.322464 0.104878 0.305928 0.530851 0.530656 -0.660758 
-0.320367 0.0998238 0.304012 0.988097 -0.109615 0.107933 
-0.320307 0.100119 0.303163 0.966077 -0.257448 -0.0204097 
-0.321012 0.0989842 0.304337 0.465458 -0.883783 -0.0477155 
-0.321891 0.0987591 0.3054 1 0 0 
-0.319462 0.101417 0.298795 -0.242092 -0.328315 -0.913018 
-0.323302 0.106823 0.306921 -0.41607 0.410229 -0.811541 
-0.324052 0.109675 0.308124 0.0151906 0.409621 -0.912129 
-0.319004 0.106852 0.299259 0.571728 -0.550051 -0.608746 
-0.322809 0.106883 0.307408 0.854696 0.442316 -0.271756 
-0.316476 0.107358 0.297076 0.98537 0.123423 -0.117528 
-0.322085 0.0984067 0.30778 0.173408 -0.978827 -0.108755 
-0.318232 0.10442 0.297022 0.612547 -0.292791 -0.734207 
-0.319275 0.106182 0.29881 -0.310814 0.948833 0.0557648 
-0.320436 0.0997071 0.303316 0.86535 -0.462157 -0.193856 
-0.323006 0.10332 0.305351 -0.969131 0.00359573 -0.24652 
-0.320795 0.0992254 0.303614 0.528462 -0.752825 -0.392407 
-0.318325 0.104187 0.297154 0.540264 -0.51396 -0.666303 
-0.320841 0.0990899 0.304164 0.501913 -0.864719 -0.0185708 
-0.320718 0.10032 0.301154 -0.276184 -0.869977 -0.408489 
-0.316643 0.107586 0.296881 0.705362 0.358923 -0.611261 
-0.317485 0.103059 0.297595 0.389578 -0.500347 -0.773228 
-0.322104 0.0986437 0.3053 0.305291 -0.952031 0.0208571 
-0.320617 0.100279 0.301204 -0.235861 -0.967549 -0.0906535 
-0.32045 0.100171 0.302059 0.474887 -0.863754 -0.168559 
-0.320486 0.10007 0.302424 0.656594 -0.729288 -0.192415 
-0.318923 0.101333 0.298679 -0.248868 -0.420711 -0.872392 
-0.319914 0.100955 0.29906 -0.00933502 -0.471736 -0.88169 
-0.321851 0.103587 0.305341 0.805235 0.474011 -0.356243 
-0.323036 0.105211 0.306059 -0.397632 0.358036 -0.844807 
-0.320964 0.101548 0.29968 -0.89047 0.0338833 -0.453779 
-0.320396 0.100784 0.299135 -0.0808361 -0.474225 -0.876685 
-0.321137 0.102133 0.303824 0.275277 0.957173 -0.0896824 
-0.319274 0.105866 0.297401 -0.70537 0.601055 -0.375748 
-0.32161 0.102125 0.300068 -0.895036 -0.277663 -0.349018 
-0.320937 0.0996278 0.302755 0.249574 -0.823056 -0.510188 
-0.320748 0.100636 0.300391 -0.691239 -0.719418 -0.0680153 
-0.323356 0.0992817 0.305044 -0.816729 -0.000968687 -0.577021 
-0.318733 0.106089 0.298712 0.55578 0.811873 -0.178802 
-0.317654 0.108774 0.297923 -0.0675223 0.973732 -0.217457 
-0.322336 0.0988779 0.304245 -0.31426 -0.798609 -0.513288 
-0.31768 0.101875 0.298477 0.80949 -0.556706 -0.186557 
-0.322375 0.0987848 0.307242 0.131001 -0.124085 -0.983586 
-0.324431 0.0983351 0.307042 -0.730933 -0.54152 -0.415323 
-0.319533 0.100549 0.300758 0.467449 -0.869645 0.158775 
-0.322043 0.103605 0.305095 0.539874 0.5358 -0.649196 
-0.316962 0.104651 0.297144 0.465076 -0.285474 -0.837979 
-0.320123 0.100381 0.30199 0.746084 -0.656164 0.113167 
-0.321486 0.100996 0.301599 -0.839014 -0.543383 0.0281253 
-0.320432 0.102899 0.29921 -0.553429 0.449235 -0.701359 
-0.32239 0.0987604 0.304512 -0.225056 -0.858904 -0.460036 
-0.319754 0.101304 0.298897 -0.19213 -0.29308 -0.936584 
-0.31752 0.099732 0.30793 0.176796 0.147266 -0.973168 
-0.323448 0.108868 0.308096 0.812433 0.243473 -0.529786 
-0.320697 0.0996737 0.302844 0.435801 -0.776126 -0.455748 
-0.319459 0.103395 0.298427 -0.755457 -0.0878031 -0.649288 
-0.322153 0.0986319 0.304838 0.0926815 -0.983066 -0.158086 
-0.317258 0.108712 0.297755 0.141438 0.980527 -0.136246 
-0.323925 0.108232 0.30801 -0.820702 -0.180443 -0.542115 
-0.321242 0.102994 0.300153 -0.755607 0.649009 -0.0885751 
-0.320604 0.0992963 0.303844 0.732605 -0.66866 -0.12722 
-0.321439 0.101874 0.300259 -0.799321 -0.596904 -0.0692273 
-0.317894 0.103305 0.297617 -0.884535 -0.156237 -0.439532 
-0.318498 0.101447 0.298486 -0.0769647 -0.623045 -0.77839 
-0.320451 0.100916 0.299108 -0.198997 -0.350309 -0.915251 
-0.322035 0.0986562 0.305002 0.226648 -0.97252 -0.0532479 
-0.320627 0.102334 0.299255 -0.558086 -0.0228558 -0.829468 
-0.324482 0.0983789 0.307087 -0.795556 -0.448958 -0.406851 
-0.320446 0.100414 0.300581 -0.0672192 -0.973553 -0.218348 
-0.322027 0.102505 0.304152 0.151182 0.579544 -0.800795 
-0.31744 0.104874 0.297104 -0.164559 -0.1217 -0.978831 
-0.320745 0.100661 0.30029 -0.68282 -0.729015 -0.0478991 
-0.318984 0.106137 0.298291 -0.248909 0.955509 0.158259 
-0.322124 0.103979 0.305375 0.557796 0.612185 -0.560441 
-0.319079 0.100681 0.300389 0.457807 -0.879819 0.127794 
-0.319743 0.106346 0.299456 -0.801615 0.176476 -0.571201 
-0.321264 0.102921 0.299989 -0.669868 0.529386 -0.520603 
-0.318543 0.10579 0.296938 0.0963691 0.516859 -0.850629 
-0.318414 0.0992303 0.308092 1 0 0 
-0.319654 0.100604 0.3011 0.581328 -0.77383 0.251486 
-0.319177 0.103136 0.300235 1 0 0 
-0.321462 0.0987799 0.304685 0.270661 -0.962071 -0.0341005 
-0.316873 0.104395 0.297406 0.907707 -0.413181 0.0731356 
-0.32024 0.103992 0.299664 -0.069707 0.322372 -0.944043 
-0.323325 0.0983115 0.306937 0.329024 -0.938932 0.100749 
-0.323767 0.109494 0.308128 0.482953 0.419795 -0.768459 
-0.324242 0.109175 0.308195 -0.863681 -0.213094 -0.456777 
-0.317607 0.103357 0.297409 0.4254 -0.404543 -0.809555 
-0.320859 0.100406 0.301128 -0.526859 -0.737344 -0.42278 
-0.321616 0.102136 0.300067 -0.892816 -0.355285 -0.276863 
-0.319348 0.100572 0.300373 0.387823 -0.912744 0.128424 
-0.322099 0.100408 0.30279 -0.825858 -0.230488 -0.51462 
-0.322671 0.106444 0.307089 0.841711 0.440416 -0.312341 
-0.318708 0.101037 0.30031 0.717638 -0.622986 0.311261 
-0.322969 0.0986214 0.307007 0.949631 -0.0173494 -0.312891 
-0.317088 0.108596 0.297552 0.31842 0.911174 -0.261477 
-0.321242 0.102974 0.300023 -0.728944 0.62761 -0.273398 
-0.320151 0.10319 0.299159 -0.473251 0.575861 -0.666647 
-0.322665 0.101871 0.304643 -0.962746 -0.201617 -0.180195 
-0.321007 0.0996361 0.302712 0.177393 -0.827743 -0.532328 
-0.324188 0.0980835 0.30772 1 0 0 
-0.320594 0.0999023 0.302481 0.420948 -0.854392 -0.304659 
-0.321928 0.100607 0.302424 -0.852096 -0.238865 -0.465699 
-0.319667 0.100855 0.301625 1 0 0 
-0.321855 0.100945 0.302238 -0.857184 0.0477961 -0.512788 
-0.323413 0.0981752 0.307884 1 0 0 
-0.320595 0.099673 0.302953 0.604626 -0.700151 -0.379757 
-0.320387 0.0997446 0.30406 0.966255 -0.211517 0.147007 
-0.321995 0.100746 0.302493 -0.864256 -0.0992816 -0.493157 
-0.322293 0.0993908 0.303772 -0.668334 -0.339947 -0.661639 
-0.321873 0.0992755 0.303479 -0.359286 -0.780936 -0.510933 
-0.319259 0.100717 0.299362 0.130194 -0.889473 -0.438049 
-0.323881 0.108527 0.307884 -0.575071 -0.0853931 -0.813635 
-0.32283 0.104556 0.305562 -0.343746 0.509017 -0.789139 
-0.31923 0.100701 0.299482 0.168412 -0.942513 -0.288629 
-0.321529 0.102224 0.303887 0.122292 0.965746 -0.228867 
-0.32049 0.100392 0.300822 -0.221847 -0.946601 -0.233947 
-0.320626 0.101018 0.299122 -0.377571 -0.138282 -0.915597 
-0.317847 0.101515 0.298721 0.793495 -0.584439 -0.169696 
-0.321863 0.0984429 0.308129 0.477359 -0.876655 -0.0600365 
-0.321546 0.0996334 0.302834 -0.418666 -0.688096 -0.592657 
-0.318232 0.105834 0.297088 0.553136 0.538663 -0.635518 
-0.320621 0.0997015 0.302887 0.575971 -0.718786 -0.389365 
-0.323052 0.0984866 0.305426 -0.0842717 -0.95563 -0.282258 
-0.318321 0.104027 0.29729 0.543424 -0.60254 -0.584496 
-0.320738 0.100668 0.299911 -0.665226 -0.745547 0.0404249 
-0.320148 0.100417 0.300527 0.017785 -0.999775 0.0115406 
-0.320041 0.100663 0.30225 0.902171 -0.329801 0.278063 
-0.320035 0.105819 0.299717 -0.792729 0.119799 -0.597686 
-0.319047 0.10769 0.299271 1 0 0 
-0.31745 0.104257 0.297154 -0.411603 -0.203502 -0.888352 
-0.323488 0.107049 0.307146 -0.458097 0.392975 -0.797319 
-0.319578 0.101458 0.29882 -0.262138 -0.184148 -0.947298 
-0.321494 0.0986075 0.307531 0.256986 -0.701876 -0.664326 
-0.320876 0.0997244 0.302626 0.24198 -0.833997 -0.495877 
-0.317811 0.105202 0.297436 0.910676 0.0690583 -0.407308 
-0.323826 0.107973 0.308067 -0.92083 -0.293645 -0.256603 
-0.318296 0.104375 0.296991 0.524469 -0.309908 -0.793026 
-0.320304 0.103117 0.299218 -0.504669 0.428938 -0.749214 
-0.3203 0.100755 0.299137 -0.00133089 -0.5485 -0.836149 
-0.320328 0.101009 0.303603 0.991458 0.0942724 0.090132 
-0.321114 0.102957 0.299786 -0.645388 0.461481 -0.608695 
-0.322447 0.104027 0.305235 0.188247 0.64363 -0.741824 
-0.322561 0.0985151 0.305717 0.289976 -0.956938 -0.0135334 
-0.320503 0.103844 0.299731 -0.526773 0.221806 -0.820556 
-0.320674 0.0996306 0.302944 0.49634 -0.751662 -0.434341 
-0.318015 0.105963 0.298061 0.661045 0.728544 0.179565 
-0.319984 0.105688 0.299638 -0.306101 -0.144409 -0.940983 
-0.319806 0.10046 0.300709 0.246724 -0.968747 0.0256103 
-0.323974 0.098208 0.308183 -0.172719 -0.978784 0.11023 
-0.321013 0.100878 0.30073 -0.843682 -0.439194 -0.308724 
-0.323569 0.0982183 0.307412 0.260244 -0.938425 -0.227227 
-0.32118 0.101755 0.299841 -0.611519 -0.534374 -0.583514 
-0.316814 0.107965 0.296923 0.494158 0.751072 -0.437835 
-0.319282 0.106025 0.297753 -0.631341 0.767246 -0.112882 
-0.32118 0.100929 0.30111 -0.858275 -0.279029 -0.430705 
-0.31657 0.107508 0.296922 0.780266 0.353352 -0.516069 
-0.324148 0.109789 0.308256 -0.384485 0.842594 -0.377103 
-0.321485 0.102725 0.305161 0.938187 0.336437 -0.0813332 
-0.323868 0.108523 0.307891 -0.613907 -0.0882502 -0.78443 
-0.323465 0.106677 0.306957 -0.585266 0.30579 -0.750971 
-0.321157 0.101461 0.300311 -0.865972 -0.457599 -0.201729 
-0.318038 0.101474 0.298535 0.377319 -0.713552 -0.590316 
-0.32214 0.102358 0.303984 -0.213159 0.524495 -0.824299 
-0.321114 0.0992157 0.303374 0.140034 -0.854092 -0.500917 
-0.321249 0.102243 0.304665 0.767241 0.637454 -0.0706653 
-0.319583 0.104963 0.297507 -0.905778 -0.0622964 -0.419148 
-0.322559 0.103907 0.305125 0.0354615 0.595671 -0.802446 
-0.322779 0.106786 0.307335 0.859406 0.452759 -0.237549 
-0.32068 0.100387 0.300947 -0.387476 -0.843634 -0.371677 
-0.320422 0.0996424 0.304097 0.935022 -0.314688 0.163416 
-0.320922 0.101135 0.299464 1 0 0 
-0.319696 0.106609 0.299478 -0.858049 0.24097 -0.453525 
-0.322876 0.102597 0.305063 -0.978165 -0.130027 -0.162133 
-0.323132 0.104204 0.305945 -0.974192 -0.0139259 -0.225293 
-0.320668 0.0992497 0.303813 0.656414 -0.739136 -0.150992 
-0.32113 0.0991038 0.303604 0.195832 -0.902963 -0.382503 
-0.322185 0.102742 0.304315 0.0301917 0.573898 -0.81837 
-0.320318 0.100274 0.303725 0.99006 0.0335241 0.136589 
-0.321741 0.0987611 0.304359 0.0873785 -0.97363 -0.210737 
-0.319417 0.100588 0.299725 0.226532 -0.945323 -0.234621 
-0.321265 0.101553 0.30095 -0.976119 -0.17284 -0.131597 
-0.319045 0.10615 0.297678 -0.344487 0.929731 -0.130115 
-0.321356 0.0992191 0.303335 0.0710785 -0.776672 -0.625883 
-0.319328 0.106009 0.297981 -0.670516 0.737198 -0.0833517 
-0.318271 0.108496 0.298764 -0.348334 0.852417 0.389935 
-0.316892 0.105407 0.296921 0.309576 -0.209856 -0.927428 
-0.319358 0.106077 0.298495 -0.452087 0.788743 -0.416536 
-0.318585 0.10107 0.298931 0.129497 -0.837982 -0.53011 
-0.323377 0.108527 0.307973 0.742214 0.336874 -0.57934 
-0.321049 0.103256 0.300169 -0.781897 0.483903 -0.393033 
-0.320392 0.100412 0.300605 -0.13772 -0.985738 -0.0967104 
-0.320003 0.100391 0.300599 0.102495 -0.993908 -0.0405159 
-0.324024 0.0981537 0.306966 1 0 0 
-0.320626 0.101007 0.299112 -0.38914 -0.185011 -0.902408 
-0.320157 0.100718 0.299172 0.065846 -0.63763 -0.767524 
-0.317384 0.108752 0.29782 0.186375 0.936858 -0.295909 
-0.319969 0.102688 0.298833 -0.549953 0.0806549 -0.831292 
-0.319101 0.101083 0.298895 -0.0599928 -0.714281 -0.697283 
-0.319268 0.100789 0.299316 0.109221 -0.868743 -0.48307 
-0.320819 0.100734 0.300417 -0.755466 -0.648328 -0.0945588 
-0.322685 0.104756 0.305663 -0.0917137 0.549744 -0.830283 
-0.32234 0.105157 0.306373 0.816391 0.42999 -0.385505 
-0.322632 0.104036 0.305163 0.0469793 0.610749 -0.790429 
-0.31894 0.104254 0.297045 -0.354763 -0.466303 -0.810373 
-0.319324 0.105679 0.297252 -0.753642 0.36862 -0.544191 
-0.320904 0.101079 0.299387 -0.953847 -0.0478158 -0.296462 
-0.321439 0.100001 0.302295 -0.477986 -0.679834 -0.556196 
-0.320907 0.101222 0.299409 -0.922071 0.104593 -0.372619 
-0.321309 0.0996271 0.302716 -0.157961 -0.788941 -0.593818 
-0.321798 0.103057 0.304785 0.605788 0.594049 -0.52927 
-0.320264 0.100406 0.300575 0.0170856 -0.994343 -0.104836 
-0.321389 0.0992449 0.303288 -0.0750339 -0.809749 -0.581959 
-0.318559 0.106007 0.298611 0.379428 0.802214 0.460964 
-0.32258 0.102421 0.304358 -0.867459 -0.129833 -0.48027 
-0.32127 0.101633 0.300492 -0.839766 -0.540852 -0.0476657 
-0.316488 0.107045 0.296933 0.824737 0.0233463 -0.565034 
-0.318059 0.101397 0.298653 0.398823 -0.758548 -0.51531 
-0.323278 0.105636 0.306386 -0.582415 0.199192 -0.788109 
-0.323145 0.0983456 0.307392 0.241528 -0.799275 -0.550295 
-0.321185 0.100704 0.301211 -0.777171 -0.411416 -0.476175 
-0.322824 0.098308 0.307645 0.22426 -0.936421 -0.269857 
-0.32059 0.100219 0.30152 0.0840177 -0.964288 -0.251178 
-0.316744 0.104801 0.297564 0.974194 -0.192397 0.118024 
-0.322336 0.102484 0.30419 -0.597043 0.595424 -0.537597 
-0.323482 0.0987452 0.305421 -0.636372 -0.533878 -0.556782 
-0.320509 0.103792 0.299695 -0.567376 0.312995 -0.761655 
-0.318507 0.103664 0.298022 0.436166 -0.898734 -0.0451317 
-0.320294 0.0987952 0.30785 0.287716 -0.918346 -0.271773 
-0.321994 0.0993456 0.303512 -0.570515 -0.566886 -0.594267 
-0.318162 0.106104 0.297948 0.428116 0.90319 0.0310631 
-0.321116 0.101048 0.300851 -0.900827 -0.286685 -0.326071 
-0.320246 0.105105 0.299831 -0.78955 0.220398 -0.572744 
-0.320762 0.0986729 0.308019 0.223043 -0.974491 -0.0248991 
-0.318961 0.106196 0.298724 0.239124 0.958138 -0.157452 
-0.320982 0.102053 0.301787 -0.460083 0.8164 0.349019 
-0.320006 0.100432 0.300332 0.092675 -0.993115 -0.0716467 
-0.321096 0.0991837 0.303432 0.179817 -0.869546 -0.459952 
-0.322096 0.0986472 0.304947 0.151158 -0.98637 -0.0650057 
-0.317475 0.102302 0.298301 0.854957 -0.485689 -0.182083 
-0.318776 0.106137 0.29739 -0.107851 0.96096 -0.254802 
-0.317315 0.103895 0.297268 0.308016 -0.327922 -0.893081 
-0.317765 0.108778 0.298214 -0.0825269 0.991979 0.0957415 
-0.321317 0.101733 0.300164 -0.723756 -0.625366 -0.29171 
-0.319492 0.100595 0.299654 0.171973 -0.957026 -0.23351 
-0.320257 0.100348 0.301123 0.202382 -0.969102 -0.141007 
-0.320622 0.100509 0.300624 -0.514389 -0.830418 -0.214034 
-0.319264 0.106036 0.298346 -0.382845 0.818617 -0.428131 
-0.32126 0.101549 0.30095 -0.979325 -0.104138 -0.17343 
-0.316641 0.106113 0.296929 0.647144 -0.201182 -0.735344 
-0.323028 0.10507 0.305958 -0.584837 0.295155 -0.755545 
-0.323773 0.0981718 0.307437 0.127808 -0.989004 -0.0744042 
-0.317604 0.108768 0.297878 -0.0527664 0.983277 -0.174302 
-0.316888 0.107934 0.296866 0.370297 0.239192 -0.89759 
-0.32253 0.0983852 0.308165 1 0 0 
-0.322912 0.0985638 0.305131 -0.165107 -0.91543 -0.367053 
-0.321947 0.103692 0.305292 0.702503 0.559668 -0.439615 
-0.323024 0.107278 0.307424 0.764337 0.463299 -0.448489 
-0.320688 0.100722 0.29922 -0.392663 -0.571166 -0.720822 
-0.3234 0.106434 0.306807 -0.647977 0.307236 -0.696944 
-0.320265 0.104337 0.29974 -0.181016 -0.02357 -0.983198 
-0.322972 0.107114 0.307318 0.737073 0.473952 -0.481761 
-0.322769 0.104536 0.305575 -0.113343 0.593546 -0.796779 
-0.321348 0.10169 0.301662 -0.883704 0.429939 -0.184983 
-0.321713 0.0987508 0.304954 0.319133 -0.946262 0.052367 
-0.321417 0.100893 0.301502 -0.885613 -0.368162 -0.283101 
-0.317366 0.102622 0.29815 0.879598 -0.460069 -0.121014 
-0.317617 0.102019 0.298587 0.931553 -0.3394 0.130446 
-0.318685 0.106059 0.298748 0.597211 0.800391 0.0520856 
-0.322791 0.103279 0.304853 -0.789721 0.17714 -0.587335 
-0.318081 0.106018 0.29809 0.60187 0.769466 0.213716 
-0.320681 0.100066 0.302004 0.192243 -0.916597 -0.350559 
-0.318475 0.099183 0.307846 0.192001 -0.979593 -0.0594451 
-0.318327 0.106103 0.297544 0.36097 0.9149 -0.180715 
-0.319107 0.106129 0.297711 -0.426769 0.895022 -0.129632 
-0.322974 0.104934 0.305906 -0.394955 0.422621 -0.815722 
-0.320748 0.0992219 0.303687 0.471376 -0.856954 -0.208409 
-0.321758 0.0993679 0.303292 -0.482562 -0.727049 -0.488399 
-0.318977 0.100645 0.29997 0.329064 -0.944306 0.00160393 
-0.320703 0.0992115 0.303809 0.614825 -0.763484 -0.197693 
-0.320442 0.100392 0.304189 1 0 0 
-0.321992 0.0987563 0.304431 -0.000844011 -0.971242 -0.238091 
-0.316712 0.107914 0.296976 0.599299 0.719594 -0.350749 
-0.321556 0.102464 0.304394 0.53068 0.799431 -0.281583 
-0.321461 0.102284 0.304157 0.384557 0.869815 -0.309091 
-0.32081 0.103022 0.299515 -0.651989 0.446921 -0.612513 
-0.318012 0.105749 0.297282 0.75997 0.462442 -0.45672 
-0.321919 0.102896 0.304518 0.448909 0.582839 -0.677332 
-0.320082 0.105294 0.299724 -0.0899312 -0.122924 -0.988333 
-0.316479 0.107397 0.29709 0.990972 0.111054 -0.0751102 
-0.322177 0.102224 0.303921 -0.469909 0.416649 -0.778196 
-0.322802 0.104561 0.305547 -0.129632 0.602157 -0.787783 
-0.32054 0.099543 0.303345 0.682346 -0.679135 -0.270516 
-0.321417 0.100135 0.302113 -0.530988 -0.648799 -0.545079 
-0.320656 0.0992573 0.30383 0.775102 -0.551184 -0.308889 
-0.320358 0.0998579 0.303922 0.992976 -0.0993707 0.0642266 
-0.323168 0.0990753 0.304864 -0.728156 -0.29058 -0.620767 
-0.321249 0.0999781 0.302184 -0.312934 -0.786229 -0.532837 
-0.32055 0.103847 0.299762 -0.649368 0.27397 -0.709409 
-0.317997 0.101741 0.298322 0.293458 -0.652875 -0.69831 
-0.318188 0.108484 0.29882 1 0 0 
-0.320723 0.100235 0.301465 -0.0928798 -0.945254 -0.312839 
-0.318567 0.103713 0.29755 0.192969 -0.902379 -0.385325 
-0.317161 0.108553 0.297391 0.290214 0.783483 -0.549482 
-0.320848 0.102257 0.299385 -0.51087 -0.0884977 -0.855091 
-0.323145 0.104858 0.306036 -0.88284 0.0974356 -0.459456 
-0.322582 0.0985165 0.305252 0.101066 -0.97763 -0.184459 
-0.322911 0.09826 0.30775 0.17994 -0.97718 -0.112874 
-0.319392 0.106137 0.298727 -0.560057 0.795219 -0.232301 
-0.320652 0.0996167 0.302992 0.523166 -0.736779 -0.428315 
-0.320861 0.103578 0.30025 1 0 0 
-0.322485 0.101398 0.30422 -0.953832 -0.205169 -0.21934 
-0.320958 0.103382 0.300223 1 0 0 
-0.317218 0.104227 0.297168 0.305653 -0.446384 -0.841022 
-0.316918 0.105729 0.29687 0.173176 -0.114465 -0.978217 
-0.320958 0.100818 0.300678 -0.808716 -0.512645 -0.288398 
-0.317913 0.105754 0.297523 0.781727 0.511585 -0.35663 
-0.321167 0.101261 0.300743 -0.936094 -0.248612 -0.248838 
-0.319462 0.100552 0.300161 0.286355 -0.958122 -0.00161854 
-0.318049 0.105188 0.297016 0.751116 0.0232034 -0.659762 
-0.322429 0.102247 0.304145 -0.824181 0.0109206 -0.566222 
-0.32148 0.100627 0.301732 -0.78498 -0.310411 -0.536145 
-0.322301 0.104692 0.305906 0.634125 0.605548 -0.48083 
-0.319357 0.10574 0.299963 0.925423 -0.374469 0.0580103 
-0.317482 0.103135 0.297568 0.391842 0.0211741 -0.919789 
-0.318004 0.102927 0.297721 -0.682351 -0.0874136 -0.72578 
-0.319936 0.101294 0.298936 -0.178156 -0.186873 -0.966095 
-0.32333 0.0983636 0.305853 -0.0786351 -0.952377 -0.294608 
-0.317023 0.105628 0.296836 0.0319331 -0.148496 -0.988397 
-0.320303 0.104491 0.299776 -0.283869 0.114266 -0.95203 
-0.320721 0.103759 0.299972 -0.774325 0.219222 -0.593601 
-0.323937 0.0981461 0.307111 1 0 0 
-0.323155 0.105278 0.306144 -0.853915 0.0368126 -0.519108 
-0.317403 0.108541 0.29731 -0.162199 0.778858 -0.605864 
-0.318852 0.103799 0.297401 -0.275412 -0.764747 -0.582503 
-0.317865 0.101536 0.298806 0.814698 -0.570513 -0.103838 
-0.319811 0.100417 0.300513 0.165797 -0.986019 -0.0166709 
-0.320615 0.102735 0.299279 -0.56521 0.153232 -0.810591 
-0.316839 0.105173 0.297075 0.714316 -0.351214 -0.605311 
-0.321978 0.102103 0.30375 -0.49496 0.732121 -0.467988 
-0.320501 0.09919 0.3076 0.112814 0.150095 -0.982214 
-0.316721 0.104894 0.297448 0.978348 -0.0711561 -0.194352 
-0.321066 0.100557 0.301202 -0.690492 -0.540009 -0.48126 
-0.321326 0.100779 0.301404 1 0 0 
-0.322962 0.0982392 0.30794 1 0 0 
-0.323003 0.104788 0.305814 -0.633977 0.353566 -0.687797 
-0.320105 0.100405 0.30072 0.0857373 -0.993552 -0.0741888 
-0.321417 0.100066 0.302197 -0.489422 -0.674963 -0.552169 
-0.321075 0.100392 0.301464 -0.579019 -0.655759 -0.484477 
-0.321262 0.101362 0.301101 -0.97329 -0.101579 -0.205884 
-0.319127 0.106136 0.297903 -0.405465 0.914109 0.00167044 
-0.319061 0.101159 0.298817 -0.12099 -0.64587 -0.7538 
-0.317611 0.108781 0.297971 -0.0603851 0.994952 -0.0801537 
-0.321534 0.098488 0.307964 0.169793 -0.98427 0.0488215 
-0.318229 0.0996452 0.30777 0.27487 0.361496 -0.890936 
-0.323483 0.106476 0.306934 -0.920494 0.0547781 -0.386897 
-0.323563 0.0981676 0.307752 0.127453 -0.991292 -0.033105 
-0.322662 0.102976 0.304634 -0.595703 0.31966 -0.736855 
-0.318537 0.104015 0.297101 0.153785 -0.603856 -0.782117 
-0.321217 0.099773 0.30246 -0.146204 -0.823066 -0.548805 
-0.321469 0.0985478 0.307636 0.234377 -0.877672 -0.418042 
-0.321555 0.0989773 0.303773 0.0139733 -0.913188 -0.407298 
-0.323129 0.0989891 0.304874 -0.657749 -0.387251 -0.646067 
-0.316801 0.107693 0.296812 0.367441 0.228611 -0.901512 
-0.321512 0.100789 0.301727 -0.833527 -0.222026 -0.505902 
-0.324266 0.0981113 0.307472 -0.0336117 -0.992325 -0.118998 
-0.323296 0.0990843 0.304997 -0.706091 -0.131345 -0.695833 
-0.322548 0.101587 0.304343 -0.922781 -0.124836 -0.364543 
-0.321356 0.102379 0.304645 0.824281 0.518223 -0.228046 
-0.322921 0.0990739 0.304601 -0.651152 -0.433116 -0.623227 
-0.3216 0.0994721 0.303043 -0.350442 -0.72566 -0.592121 
-0.318814 0.106128 0.298967 0.477302 0.847916 0.230698 
-0.318842 0.10135 0.300568 1 0 0 
-0.31826 0.104152 0.297235 0.601429 -0.505148 -0.618958 
-0.322192 0.102946 0.304443 0.116591 0.63007 -0.767736 
-0.317245 0.0996591 0.308083 0.763374 -0.625573 -0.160992 
-0.321332 0.0990363 0.303675 0.120788 -0.916488 -0.381392 
-0.320931 0.102637 0.299466 -0.479925 0.255721 -0.839213 
-0.323256 0.099224 0.304915 -0.822399 -0.210644 -0.528478 
-0.319809 0.106235 0.29951 -0.820467 0.200324 -0.535448 
-0.323354 0.108735 0.308227 0.945156 0.301017 -0.126767 
-0.321477 0.101953 0.3 -0.728657 -0.555892 -0.400053 
-0.322777 0.104416 0.305443 -0.435973 0.441625 -0.784152 
-0.321356 0.0992163 0.30334 -0.106207 -0.909354 -0.402239 
-0.322794 0.103462 0.304949 -0.559083 0.373775 -0.74008 
-0.321326 0.0992136 0.303346 0.21418 -0.310921 -0.925989 
-0.322996 0.0984776 0.305532 -0.0309292 -0.965567 -0.258309 
-0.319709 0.101203 0.298929 -0.152616 -0.338031 -0.928678 
-0.324465 0.0981933 0.307338 -0.576408 -0.769256 -0.275678 
-0.317983 0.108723 0.298418 -0.201356 0.957844 0.204915 
-0.319175 0.106171 0.299022 0.44458 0.720765 -0.531834 
-0.316515 0.10721 0.296912 0.738195 0.0236242 -0.674174 
-0.323849 0.109536 0.308106 0.348785 0.478898 -0.805609 
-0.321153 0.101638 0.299943 -0.7087 -0.525695 -0.47052 
-0.320301 0.100174 0.30358 0.986217 -0.0983403 0.133063 
-0.318551 0.106055 0.298523 0.187591 0.86666 0.462287 
-0.320276 0.102577 0.299019 -0.554093 0.0780774 -0.828785 
-0.321162 0.101676 0.299906 -0.69176 -0.575506 -0.436189 
-0.322169 0.104309 0.305658 0.650959 0.577042 -0.493229 
-0.321321 0.100309 0.301819 -0.58286 -0.615916 -0.53002 
-0.320108 0.102463 0.298911 -0.534529 0.0125912 -0.845057 
-0.320223 0.100393 0.300636 0.38419 0.181818 -0.905174 
-0.322941 0.103041 0.305135 -0.968731 -0.0597375 -0.240815 
-0.319379 0.107278 0.299277 -0.868709 0.403633 -0.287098 
-0.322412 0.104719 0.305817 0.45962 0.661331 -0.592782 
-0.321266 0.102622 0.299707 -0.618899 0.352028 -0.702168 
-0.319428 0.100537 0.299811 0.206914 -0.962613 -0.17482 
-0.318186 0.105862 0.297158 0.602175 0.598164 -0.528758 
-0.323082 0.0984936 0.305398 -0.142306 -0.932163 -0.332897 
-0.316707 0.106937 0.296749 0.320316 -0.224595 -0.920301 
-0.320881 0.101202 0.299364 -0.789819 0.13383 -0.598561 
-0.318528 0.10405 0.297112 0.247744 -0.570832 -0.782799 
-0.319975 0.103408 0.299282 -0.164194 0.735172 -0.657695 
-0.316703 0.107004 0.296744 0.382868 -0.0602579 -0.921836 
-0.320908 0.0997175 0.302616 0.22477 -0.867286 -0.444178 
-0.319652 0.10457 0.300343 0.995819 -0.0908327 0.00967786 
-0.323836 0.109301 0.308021 0.270363 0.309142 -0.911776 
-0.321174 0.102049 0.299651 -0.586253 -0.348746 -0.731221 
-0.321407 0.100879 0.301481 -0.824684 -0.564573 -0.0339735 
-0.320379 0.103458 0.299448 -0.417311 0.526802 -0.740494 
-0.320395 0.100414 0.300607 -0.142414 -0.981546 -0.127615 
-0.316488 0.10667 0.296968 0.875509 -0.0978462 -0.473191 
-0.323077 0.0985804 0.305273 -0.303584 -0.846698 -0.436966 
-0.322736 0.104307 0.305366 -0.228309 0.542478 -0.808451 
-0.32152 0.101053 0.301657 -0.922964 -0.34637 -0.167827 
-0.319809 0.101124 0.298966 -0.103417 -0.352494 -0.930082 
-0.32289 0.107132 0.307565 0.876135 0.423861 -0.22963 
-0.322787 0.0984484 0.305533 0.0962555 -0.982543 -0.159198 
-0.319569 0.106839 0.299366 -0.815242 0.204675 -0.541746 
-0.320624 0.101017 0.299109 -0.404664 -0.173751 -0.897807 
-0.319002 0.106114 0.298282 -0.275523 0.948206 0.158091 
-0.320846 0.100739 0.299663 -0.831381 -0.555508 -0.014691 
-0.320994 0.10209 0.304032 0.432838 0.901461 0.00438421 
-0.323986 0.109553 0.308082 0.105713 0.470301 -0.876152 
-0.320919 0.0997481 0.30255 0.209947 -0.833511 -0.51106 
-0.319253 0.100577 0.300368 0.413765 -0.90757 0.0715178 
-0.318835 0.106134 0.29868 0.396908 0.893307 -0.210871 
-0.323038 0.104543 0.305744 -0.664373 0.361993 -0.653887 
-0.32369 0.0982016 0.306886 0.171786 -0.983859 -0.0501066 
-0.319048 0.105799 0.297062 -0.542716 0.518461 -0.660801 
-0.321696 0.0990676 0.303632 -0.207003 -0.796868 -0.567584 
-0.318667 0.106201 0.298177 0.0231195 0.988405 0.150067 
-0.323148 0.10656 0.306777 0.0519895 0.56681 -0.822207 
-0.321331 0.101668 0.30056 -0.822651 -0.56704 0.0413585 
-0.31913 0.100748 0.299448 0.17029 -0.920737 -0.351063 
-0.320387 0.0999718 0.302867 0.852167 -0.502027 -0.147582 
-0.321332 0.0995069 0.302893 -0.0867052 -0.831542 -0.548652 
-0.321332 0.101751 0.301576 -0.841269 0.494836 -0.217723 
-0.316933 0.105903 0.296782 0.0916059 -0.181032 -0.979202 
-0.320764 0.102597 0.299344 -0.531473 0.11933 -0.838628 
-0.321306 0.101941 0.299851 -0.633129 -0.449032 -0.63049 
-0.320427 0.100801 0.299154 -0.0915158 -0.537383 -0.838358 
-0.320522 0.0993908 0.303906 0.823787 -0.563797 -0.059234 
-0.320474 0.102928 0.299257 -0.536011 0.328851 -0.777528 
-0.321344 0.101254 0.301269 -0.937098 0.0677979 -0.342418 
-0.320374 0.099746 0.303924 0.976955 -0.21155 0.0283813 
-0.320344 0.10087 0.303862 0.994174 0.0608217 0.088983 
-0.322705 0.103794 0.305069 -0.318593 0.458994 -0.829351 
-0.323821 0.0981794 0.308251 1 0 0 
-0.320023 0.100417 0.30075 1 0 0 
-0.318671 0.105315 0.296787 -0.0983379 0.0949741 -0.990611 
-0.322216 0.104749 0.306118 0.79759 0.490765 -0.350713 
-0.31756 0.102161 0.298461 0.89343 -0.425957 0.142633 
-0.318846 0.106132 0.297329 -0.188346 0.920857 -0.341391 
-0.317543 0.0995222 0.30792 0.338711 -0.40289 -0.850267 
-0.321159 0.100522 0.301411 -0.669724 -0.50857 -0.541134 
-0.32124 0.102121 0.299661 -0.5637 -0.285276 -0.775151 
-0.317443 0.102714 0.297826 0.573087 -0.506292 -0.644391 
-0.323382 0.105674 0.306596 -0.963015 -0.0627064 -0.262048 
-0.319144 0.100955 0.299034 0.0327131 -0.792218 -0.609361 
-0.318375 0.103974 0.297207 0.46883 -0.622131 -0.627018 
-0.318488 0.10384 0.29739 0.364482 -0.779731 -0.50909 
-0.318877 0.106148 0.298658 0.366515 0.897426 -0.245549 
-0.318642 0.100823 0.299688 0.344412 -0.93797 -0.0399035 
-0.316564 0.107158 0.296878 0.664337 0.0914232 -0.74182 
-0.321482 0.101906 0.300348 -0.850113 -0.522871 -0.0625636 
-0.319021 0.104041 0.297243 -0.485421 -0.56578 -0.666528 
-0.316509 0.106408 0.296999 0.821941 -0.101554 -0.560447 
-0.321648 0.102094 0.303338 -0.164827 0.944398 -0.284509 
-0.322284 0.0986124 0.30507 0.132473 -0.986028 -0.100992 
-0.32335 0.106845 0.306977 -0.302135 0.505166 -0.808407 
-0.316639 0.107046 0.296814 0.540356 -0.0231052 -0.841119 
-0.32306 0.0982531 0.307966 0.272429 -0.962002 0.018285 
-0.321688 0.0992831 0.303353 -0.259748 -0.819287 -0.511175 
-0.317979 0.101901 0.298197 0.261087 -0.603086 -0.753738 
-0.321435 0.100917 0.301524 -0.881807 -0.424301 -0.205876 
-0.321292 0.0988355 0.304413 0.317507 -0.94766 -0.0336002 
-0.32201 0.102896 0.304466 0.339205 0.590337 -0.732422 
-0.318635 0.106059 0.297158 0.0751542 0.823109 -0.562889 
-0.319232 0.10607 0.298098 -0.473435 0.877097 0.0809932 
-0.320383 0.100465 0.30021 1 0 0 
-0.320064 0.100886 0.299084 0.0146471 -0.518902 -0.854708 
-0.319021 0.106135 0.298442 0.00507646 0.980442 -0.196742 
-0.321231 0.101547 0.300737 -0.913077 -0.394139 -0.104621 
-0.322658 0.101885 0.304586 -0.961505 -0.171946 -0.214343 
-0.31887 0.103849 0.297345 -0.296521 -0.75608 -0.583454 
-0.32237 0.10115 0.30339 -0.956341 0.175466 -0.233718 
-0.319642 0.104742 0.300196 0.986067 -0.165865 0.0126721 
-0.318496 0.101315 0.298598 0.00452838 -0.719682 -0.69429 
-0.319299 0.100611 0.299747 0.242928 -0.953053 -0.180766 
-0.324219 0.0984171 0.30666 -0.651761 -0.542594 -0.529905 
-0.322115 0.100994 0.302664 -0.865447 0.209563 -0.455065 
-0.318179 0.106099 0.298097 0.52229 0.836755 0.164483 
-0.321452 0.102266 0.304095 0.295946 0.919739 -0.257868 
-0.321748 0.102766 0.304532 0.561506 0.629552 -0.537006 
-0.323796 0.108997 0.307923 0.107352 0.38793 -0.915416 
-0.323883 0.109029 0.307933 -0.000607731 0.25384 -0.967246 
-0.322044 0.0986652 0.305226 0.286983 -0.951961 0.10682 
-0.319809 0.100452 0.300669 0.170303 -0.981593 0.0864372 
-0.320488 0.0987528 0.308163 0.526101 -0.848638 0.0550499 
-0.322906 0.104107 0.305372 -0.596429 0.4549 -0.661316 
-0.32245 0.0987285 0.304543 -0.224664 -0.869613 -0.439659 
-0.322009 0.103025 0.304586 0.342837 0.646911 -0.681152 
-0.323822 0.109496 0.308101 0.380978 0.389285 -0.838638 
-0.31761 0.10296 0.297609 0.263983 -0.426855 -0.864932 
-0.322601 0.0985832 0.304994 -0.0234461 -0.966888 -0.254121 
-0.319451 0.101445 0.298786 -0.214084 -0.347093 -0.913069 
-0.322646 0.0984762 0.305458 0.145706 -0.98128 -0.125932 
-0.318621 0.103992 0.29711 -0.0119646 -0.605536 -0.795728 
-0.323276 0.108464 0.308247 0.967157 0.231875 -0.104122 
-0.322133 0.103611 0.305038 0.447895 0.558019 -0.698574 
-0.322422 0.103985 0.305203 0.234988 0.617361 -0.750764 
-0.320437 0.0999093 0.302831 0.795045 -0.577209 -0.186368 
-0.31943 0.106121 0.29881 -0.583618 0.809508 -0.0639294 
-0.320385 0.104162 0.299755 -0.547364 0.290458 -0.784873 
-0.317375 0.0995528 0.308067 0.548402 -0.831785 -0.0859605 
-0.318511 0.101009 0.299061 0.223128 -0.86711 -0.445347 
-0.323696 0.109056 0.307926 0.199901 0.273547 -0.940857 
-0.319907 0.100548 0.30169 0.723421 -0.647282 0.240183 
-0.318969 0.101912 0.300778 1 0 0 
-0.322013 0.102706 0.304307 0.273253 0.541446 -0.795091 
-0.319535 0.0990391 0.30785 0.248748 -0.83106 -0.497457 
-0.319824 0.100907 0.299085 0.0544803 -0.556089 -0.829335 
-0.322372 0.100009 0.303621 -0.925129 -0.266654 -0.270243 
-0.316476 0.10673 0.296981 0.918115 -0.0554939 -0.39241 
-0.318134 0.105718 0.297096 0.670506 0.409336 -0.618762 
-0.317722 0.10175 0.298703 0.885926 -0.460849 -0.0524794 
-0.316474 0.107314 0.297131 0.979843 0.0442889 0.194799 
-0.321326 0.100239 0.301898 -0.545993 -0.622451 -0.560755 
-0.318812 0.106172 0.298179 -0.100454 0.980502 0.16889 
-0.322256 0.101989 0.30389 -0.734559 0.239874 -0.634731 
-0.319139 0.106104 0.2978 -0.448896 0.892763 -0.0382995 
-0.321055 0.0988918 0.307508 0.214876 -0.192617 -0.957459 
-0.3222 0.098675 0.304748 0.0616079 -0.968152 -0.242663 
-0.321117 0.102608 0.299574 -0.576294 0.272044 -0.770635 
-0.322527 0.103286 0.304644 -0.260143 0.503319 -0.824012 
-0.32037 0.104441 0.299808 -0.609806 0.163577 -0.775486 
-0.322969 0.103022 0.305508 1 0 0 
-0.322286 0.098618 0.304993 0.0593101 -0.996732 -0.0548423 
-0.323461 0.105896 0.306932 1 0 0 
-0.32132 0.101704 0.300394 -0.780733 -0.624249 -0.0277514 
-0.323619 0.108971 0.307971 0.455655 0.292776 -0.840631 
-0.321217 0.0986736 0.307572 0.259592 -0.670364 -0.695144 
-0.32268 0.104201 0.305273 -0.370341 0.466925 -0.803012 
-0.320225 0.101615 0.298974 -0.388202 -0.0056433 -0.921557 
-0.320189 0.10108 0.299027 -0.0968238 -0.325848 -0.940451 
-0.321768 0.102033 0.303245 -0.35634 0.871558 -0.336762 
-0.31873 0.102772 0.298516 -0.367848 -0.269331 -0.890027 
-0.320485 0.099673 0.303242 0.820367 -0.520526 -0.236748 
-0.319934 0.100507 0.301671 0.669803 -0.729275 0.139722 
-0.320538 0.100461 0.300638 -0.394551 -0.893429 -0.214744 
-0.321951 0.0991816 0.303627 -0.435641 -0.641663 -0.631257 
-0.323 0.103196 0.305464 1 0 0 
-0.32101 0.101665 0.299717 -0.775097 -0.443318 -0.450214 
-0.321045 0.099969 0.302133 -0.0748282 -0.868907 -0.489287 
-0.317349 0.105093 0.297065 -0.692282 0.0294373 -0.721026 
-0.322851 0.0982565 0.307861 0.16378 -0.98035 -0.109953 
-0.321248 0.0988585 0.304614 0.407474 -0.913208 -0.0039751 
-0.321139 0.101892 0.302932 0.264102 0.895714 -0.357697 
-0.316505 0.106522 0.296982 0.852069 -0.142361 -0.503699 
-0.320687 0.100098 0.301919 0.215663 -0.901286 -0.37573 
-0.320279 0.104712 0.299797 -0.658419 0.263504 -0.705018 
-0.31874 0.106191 0.298041 -0.0481561 0.995149 0.085789 
-0.318453 0.106006 0.298553 0.300447 0.78279 0.544951 
-0.317392 0.10009 0.308128 0.241648 0.650191 -0.720318 
-0.323944 0.109799 0.308238 0.2401 0.723962 -0.646708 
-0.322194 0.0997056 0.303465 -0.561013 0.0630871 -0.8254 
-0.32083 0.0993004 0.303373 0.392957 -0.828584 -0.39879 
-0.321391 0.10229 0.304264 0.488775 0.838593 -0.240544 
-0.320721 0.0992345 0.303703 0.577654 -0.781746 -0.234923 
-0.316551 0.107601 0.297017 0.82531 0.270484 -0.495683 
-0.320805 0.100531 0.300834 -0.623399 -0.692919 -0.362266 
-0.321855 0.100651 0.302294 -0.809333 -0.0969265 -0.579297 
-0.322489 0.101417 0.304243 -0.944232 -0.113837 -0.308978 
-0.316774 0.107554 0.29678 0.336735 0.141342 -0.930931 
-0.320754 0.102995 0.299471 -0.570325 0.34081 -0.74738 
-0.321662 0.0989314 0.307424 0.161041 0.145869 -0.976109 
-0.321651 0.100599 0.302005 -0.793471 -0.282952 -0.538834 
-0.319633 0.100483 0.300271 0.204108 -0.977869 -0.0459611 
-0.316637 0.107483 0.296853 0.604193 0.0882222 -0.791939 
-0.316709 0.105952 0.296917 0.584564 -0.190479 -0.788672 
-0.319506 0.100529 0.300073 0.250255 -0.965789 -0.0680037 
-0.322942 0.106879 0.307138 0.66 0.568878 -0.490691 
-0.316879 0.105045 0.297083 0.490289 -0.26812 -0.829294 
-0.320913 0.0992581 0.303384 0.315534 -0.84229 -0.437018 
-0.320271 0.100566 0.303261 0.9945 0.00475997 0.104628 
-0.323122 0.105142 0.306029 -0.829189 0.0496863 -0.556755 
-0.322065 0.0987695 0.304301 -0.0961047 -0.921829 -0.375494 
-0.319025 0.103086 0.29833 0.276793 -0.527866 -0.802959 
-0.31707 0.105001 0.296942 -0.0875107 -0.188665 -0.978135 
-0.318136 0.104357 0.297227 0.665783 -0.386082 -0.638493 
-0.321381 0.101931 0.299895 -0.654646 -0.448864 -0.608244 
-0.318326 0.0992108 0.307977 0.223486 -0.974458 -0.022027 
-0.319203 0.106205 0.298799 -0.170352 0.985353 0.00774354 
-0.316647 0.105819 0.297004 0.721404 -0.237763 -0.650419 
-0.322295 0.10472 0.30595 0.651795 0.566368 -0.504371 
-0.32035 0.100387 0.303663 0.988663 -0.0164608 0.149245 
-0.323564 0.109115 0.308096 0.688621 0.374994 -0.620629 
-0.320276 0.100667 0.303284 0.994889 0.0376747 0.0936865 
-0.321383 0.102398 0.304612 0.74815 0.589223 -0.305102 
-0.321244 0.10217 0.303908 0.255137 0.956926 -0.138556 
-0.317632 0.10324 0.297519 0.645112 -0.711448 -0.278698 
-0.318862 0.106171 0.298804 0.358244 0.932113 -0.0531594 
-0.321437 0.101916 0.300052 -0.724087 -0.606872 -0.327727 
-0.320994 0.0988112 0.307549 0.232197 -0.415179 -0.879608 
-0.320264 0.100839 0.299127 -0.0417379 -0.501176 -0.864338 
-0.323063 0.0985352 0.305289 -0.206182 -0.899674 -0.384806 
-0.322336 0.104628 0.305799 0.602966 0.532737 -0.593821 
-0.320112 0.104868 0.299724 -0.116286 0.018854 -0.993037 
-0.323097 0.107525 0.307556 0.755645 0.480725 -0.444864 
-0.320715 0.0988779 0.30759 0.21412 -0.367937 -0.904862 
-0.317846 0.105806 0.297887 0.861342 0.505183 -0.0536643 
-0.32109 0.103165 0.300111 -0.767376 0.627928 -0.129768 
-0.323586 0.0983796 0.30605 -0.274333 -0.871059 -0.407429 
-0.321879 0.0988404 0.305498 1 0 0 
-0.321005 0.101188 0.299875 -0.981552 -0.0841874 -0.171665 
-0.320136 0.100427 0.300184 0.0334646 -0.998452 -0.0444359 
-0.320608 0.100833 0.29914 -0.26494 -0.354235 -0.896841 
-0.321863 0.103313 0.304999 0.65912 0.526907 -0.536591 
-0.317012 0.106392 0.296782 -0.369626 -0.0218117 -0.928925 
-0.322523 0.103629 0.304928 -0.0578342 0.562647 -0.824672 
-0.322034 0.0984282 0.307688 0.15971 -0.968748 -0.18979 
-0.321586 0.102475 0.304368 0.495847 0.800622 -0.336363 
-0.322634 0.104472 0.305535 0.0936226 0.54287 -0.834582 
-0.320833 0.100442 0.301027 -0.571439 -0.699702 -0.428805 
-0.323062 0.10369 0.305575 -0.970147 0.0242852 -0.241298 
-0.322623 0.0987097 0.304728 -0.260392 -0.861654 -0.435602 
-0.321311 0.101811 0.299948 -0.630621 -0.644675 -0.432101 
-0.320864 0.100383 0.301166 0.110939 0.393709 -0.912516 
-0.323986 0.108637 0.307978 -0.741789 -0.154484 -0.652598 
-0.321771 0.102292 0.303979 0.0890145 0.846412 -0.525037 
-0.323425 0.105904 0.306801 -0.962987 -0.0183229 -0.268925 
-0.323087 0.0984157 0.305758 0.0220615 -0.974415 -0.223673 
-0.319411 0.104334 0.297466 -0.825503 -0.337893 -0.452077 
-0.322565 0.104931 0.30591 0.340782 0.5929 -0.729614 
-0.323471 0.105995 0.3069 -0.958182 0.0473441 -0.282215 
-0.320758 0.0993123 0.304632 1 0 0 
-0.323081 0.107659 0.307752 0.834623 0.394664 -0.384245 
-0.322646 0.106165 0.306828 0.790824 0.400286 -0.463 
-0.317647 0.102121 0.298661 0.93953 -0.277522 0.200663 
-0.319534 0.100514 0.30045 0.289253 -0.951405 0.105646 
-0.321449 0.101918 0.300008 -0.724214 -0.57934 -0.374004 
-0.319503 0.103537 0.300426 0.872582 0.422137 0.245764 
-0.323517 0.107987 0.307637 -0.106216 0.404619 -0.908296 
-0.322673 0.104163 0.305242 -0.606358 0.267089 -0.748995 
-0.318132 0.101698 0.29838 0.174081 -0.615999 -0.768272 
-0.322274 0.103899 0.3052 0.350483 0.587095 -0.729713 
-0.318859 0.103752 0.297481 -0.273594 -0.84819 -0.453564 
-0.320896 0.100415 0.301164 -0.543875 -0.66525 -0.511509 
-0.32107 0.101243 0.30036 -0.92763 -0.34096 -0.152474 
-0.320818 0.0991219 0.303955 0.514915 -0.847848 -0.126554 
-0.318514 0.106129 0.29833 0.189589 0.956227 0.222904 
-0.32409 0.098144 0.307269 0.0724071 -0.99348 -0.0880601 
-0.321303 0.10188 0.299846 -0.592471 -0.632877 -0.498443 
-0.323058 0.10653 0.306695 -0.00160849 0.512751 -0.858536 
-0.319199 0.100683 0.299539 0.199865 -0.92749 -0.315938 
-0.318634 0.104059 0.297088 0.0354597 -0.572759 -0.818957 
-0.322196 0.103007 0.3045 0.128842 0.668166 -0.732771 
-0.320802 0.10063 0.300694 -0.625777 -0.743305 -0.236433 
-0.319929 0.100465 0.29973 0.108286 -0.972128 -0.207944 
-0.32085 0.103563 0.300086 1 0 0 
-0.320016 0.100544 0.299423 0.148547 -0.861094 -0.486262 
-0.321689 0.0989773 0.307397 0.158847 0.175771 -0.971531 
-0.320363 0.100786 0.303981 0.989314 0.00192011 0.145787 
-0.320775 0.100335 0.301165 -0.285966 -0.6076 -0.740976 
-0.322411 0.0985631 0.305718 0.313387 -0.947092 0.0693242 
-0.320718 0.100352 0.301069 -0.343277 -0.8781 -0.333319 
-0.321194 0.100732 0.301291 -0.788101 -0.410588 -0.458601 
-0.321449 0.0992407 0.303309 0.101633 -0.420143 -0.901749 
-0.323598 0.106857 0.307376 1 0 0 
-0.320037 0.100654 0.299308 0.118369 -0.784169 -0.609153 
-0.318408 0.101379 0.298563 0.0489284 -0.697412 -0.714998 
-0.321455 0.102736 0.300312 -0.671711 0.300554 -0.677105 
-0.317943 0.105633 0.297309 0.8257 0.290078 -0.483813 
-0.320301 0.100069 0.303457 0.98839 -0.151905 -0.00303595 
-0.320504 0.10088 0.299134 -0.211885 -0.373294 -0.903192 
-0.320713 0.102045 0.299337 -0.593315 -0.11862 -0.796183 
-0.321448 0.0988668 0.307431 0.210326 -0.0918939 -0.973303 
-0.322857 0.104564 0.305578 -0.149114 0.618005 -0.771904 
-0.319595 0.105881 0.299574 0.209412 -0.300603 -0.930475 
-0.318456 0.100929 0.299405 0.357101 -0.918812 -0.168118 
-0.319849 0.100447 0.300692 0.234343 -0.972139 -0.00538143 
-0.321475 0.10098 0.301568 -0.888822 -0.168248 -0.42625 
-0.322425 0.100054 0.303787 -0.808155 0.188083 -0.55813 
-0.320326 0.100863 0.299083 -0.103073 -0.485898 -0.867916 
-0.320958 0.102295 0.299463 -0.522995 -0.0784528 -0.848717 
-0.31829 0.101358 0.298601 0.151705 -0.743668 -0.651109 
-0.32059 0.104182 0.300029 1 0 0 
-0.321108 0.0998425 0.302367 -0.0211665 -0.865394 -0.500645 
-0.323142 0.0983129 0.307444 0.27685 -0.806181 -0.522901 
-0.319283 0.100991 0.298995 -0.0513049 -0.720225 -0.691841 
-0.318993 0.105594 0.296925 -0.390267 0.248202 -0.886616 
-0.317117 0.108552 0.297416 0.340941 0.788402 -0.512037 
-0.32306 0.104962 0.305961 -0.438687 0.311213 -0.84303 
-0.3192 0.105945 0.297352 -0.650701 0.590302 -0.477632 
-0.321259 0.101328 0.30107 -0.963796 -0.105513 -0.244876 
-0.3211 0.100775 0.301081 -0.785784 -0.404855 -0.467585 
-0.322094 0.100457 0.30276 -0.847133 -0.253223 -0.467165 
-0.316505 0.106088 0.297091 0.965763 -0.171638 -0.194531 
-0.31717 0.0997863 0.308121 0.933509 -0.186018 -0.306525 
-0.317664 0.101884 0.298603 0.89321 -0.444122 -0.0702215 
-0.322452 0.102295 0.304192 -0.600823 0.19773 -0.774541 
-0.317847 0.10875 0.297999 -0.333109 0.93125 -0.147691 
-0.321486 0.100439 0.301891 -0.691429 -0.450398 -0.56486 
-0.320804 0.102754 0.299419 -0.557489 0.497534 -0.66458 
-0.318583 0.100899 0.299362 0.282273 -0.920022 -0.271813 
-0.322963 0.0985839 0.305199 -0.234464 -0.877114 -0.419163 
-0.320901 0.0999482 0.302181 0.107246 -0.871575 -0.478389 
-0.321742 0.0989398 0.303872 -0.0753772 -0.902871 -0.423251 
-0.321326 0.0992087 0.303348 0.0314695 -0.798577 -0.60107 
-0.322958 0.0989321 0.304746 -0.56175 -0.426348 -0.708988 
-0.320397 0.0998051 0.303331 0.906695 -0.396593 -0.143593 
-0.321085 0.103176 0.300433 1 0 0 
-0.322279 0.102524 0.304183 -0.429114 0.651257 -0.62588 
-0.322408 0.105439 0.306552 0.849489 0.338128 -0.405016 
-0.320681 0.0992713 0.303661 0.607975 -0.756816 -0.239991 
-0.317519 0.103131 0.297553 0.334664 -0.0626358 -0.940253 
-0.317153 0.108479 0.29727 0.260385 0.791402 -0.553066 
-0.320198 0.0990204 0.307661 0.191284 -0.401382 -0.895714 
-0.318783 0.10079 0.299747 0.409048 -0.912444 0.0111749 
-0.319228 0.106178 0.298943 -0.237064 0.931119 0.27716 
-0.323236 0.105462 0.306296 -0.905352 -0.0279073 -0.423744 
-0.318174 0.105208 0.296943 0.593869 0.0431351 -0.803404 
-0.317534 0.102482 0.298031 0.57788 -0.567112 -0.586889 
-0.316859 0.105745 0.296887 0.377125 -0.207042 -0.902724 
-0.316902 0.105083 0.297054 0.70048 -0.388132 -0.5989 
-0.321094 0.0991816 0.303453 0.143985 -0.230561 -0.962346 
-0.320443 0.100169 0.301926 0.336489 -0.92593 -0.171548 
-0.318128 0.101303 0.298749 0.37037 -0.800802 -0.470683 
-0.323471 0.108357 0.307807 0.335027 0.433263 -0.836684 
-0.320243 0.099215 0.307625 0.107068 0.0854524 -0.990573 
